0.203191,1.61754,-3.27871
0.273789,1.61588,-3.3291
0.13757,1.56173,-3.23307
0.205012,1.55744,-3.24758
0.269392,1.55076,-3.22409
0.334851,1.54537,-3.22038
0.398487,1.53913,-3.2024
-0.124243,1.53668,-3.44539
-0.053015,1.53384,-3.48966
0.0157961,1.52627,-3.45131
0.074426,1.5086,-3.23025
0.139366,1.50178,-3.19936
0.201106,1.49333,-3.13717
0.264547,1.48715,-3.11519
0.329819,1.48244,-3.1204
0.39497,1.47775,-3.1257
0.459993,1.47307,-3.13098
0.5231,1.46771,-3.12222
-0.841318,1.5312,-3.47218
-0.768722,1.52616,-3.48053
-0.704213,1.52687,-3.59255
-0.399297,1.48771,-3.26547
-0.329431,1.48081,-3.23213
-0.261144,1.47783,-3.27555
-0.192146,1.47453,-3.31348
-0.122362,1.47172,-3.36262
-0.0542133,1.46452,-3.32067
0.00932288,1.45332,-3.19128
0.0744589,1.44675,-3.1576
0.139263,1.44076,-3.13508
0.203298,1.43483,-3.11241
0.267632,1.42949,-3.10234
0.332789,1.42477,-3.10588
0.397759,1.42005,-3.10925
0.462567,1.41535,-3.11267
0.527567,1.41078,-3.11888
0.599084,1.40807,-3.17262
-0.920077,1.47656,-3.5254
-0.836105,1.46665,-3.43121
-0.761735,1.4606,-3.4166
-0.688351,1.45481,-3.40657
-0.61637,1.44966,-3.41009
-0.540104,1.44086,-3.32946
-0.468558,1.43483,-3.31016
-0.392788,1.42192,-3.12498
-0.325634,1.41842,-3.16125
-0.257972,1.41532,-3.20831
-0.1895,1.41203,-3.2522
-0.120391,1.40842,-3.28938
-0.0540812,1.40021,-3.20532
0.0124895,1.39445,-3.18335
0.0782827,1.38873,-3.16102
0.143302,1.38306,-3.13849
0.20756,1.37744,-3.11599
0.272219,1.37234,-3.10717
0.337229,1.36754,-3.10666
0.402387,1.36288,-3.10996
0.46737,1.35824,-3.11324
0.532721,1.35373,-3.12068
0.602749,1.35023,-3.16204
-1.07226,1.42449,-3.54548
-0.985739,1.41566,-3.45739
-0.905185,1.4082,-3.40085
-0.830477,1.4024,-3.38604
-0.756652,1.39674,-3.37395
-0.683411,1.39112,-3.36199
-0.610717,1.38554,-3.34972
-0.538213,1.37975,-3.33027
-0.460263,1.36913,-3.16065
-0.390198,1.36272,-3.11431
-0.322342,1.35791,-3.11623
-0.254743,1.3533,-3.12448
-0.186946,1.35013,-3.18183
-0.118269,1.34658,-3.22841
-0.0508433,1.34097,-3.20273
0.0161261,1.33569,-3.1869
0.0821792,1.33031,-3.16533
0.147394,1.32495,-3.14233
0.212043,1.31971,-3.12216
0.276932,1.31478,-3.11309
0.34165,1.30995,-3.10696
0.406998,1.30535,-3.11026
0.472289,1.30079,-3.11453
0.538048,1.29634,-3.12356
0.603756,1.29188,-3.13255
0.679855,1.28872,-3.21012
-1.14657,1.36507,-3.53637
-1.06337,1.3582,-3.48346
-0.982728,1.35166,-3.43838
-0.904132,1.34538,-3.39918
-0.82931,1.33986,-3.38523
-0.755232,1.33442,-3.37265
-0.681766,1.32903,-3.36039
-0.608807,1.32365,-3.34702
-0.530761,1.31581,-3.22565
-0.457776,1.30923,-3.15113
-0.387603,1.30338,-3.10361
-0.319667,1.29866,-3.10551
-0.251954,1.29395,-3.10746
-0.184458,1.28925,-3.10929
-0.116563,1.28521,-3.14644
-0.0474414,1.28152,-3.20519
0.0195209,1.2764,-3.18386
0.0860242,1.27143,-3.16812
0.151473,1.2664,-3.1455
0.216565,1.2615,-3.12842
0.281712,1.25676,-3.11941
0.346403,1.25204,-3.1104
0.411645,1.24747,-3.11064
0.477412,1.24299,-3.11728
0.543421,1.23854,-3.12653
0.609375,1.2341,-3.13568
0.681534,1.23001,-3.18564
-1.14659,1.30019,-3.53774
-1.06511,1.29426,-3.49929
-0.983842,1.28826,-3.45254
-0.903992,1.28235,-3.40567
-0.828461,1.27702,-3.38766
-0.753954,1.27178,-3.37305
-0.680117,1.26659,-3.35884
-0.606722,1.26141,-3.34175
-0.527003,1.25454,-3.19057
-0.455179,1.24914,-3.13903
-0.384993,1.2439,-3.09263
-0.317281,1.23945,-3.11213
-0.249415,1.23505,-3.13868
-0.181215,1.23061,-3.16213
-0.112947,1.22605,-3.17382
-0.0437336,1.22172,-3.21723
0.023843,1.21696,-3.20291
0.0901141,1.21216,-3.17507
0.155487,1.20743,-3.14723
0.221121,1.20282,-3.13469
0.286524,1.19826,-3.1257
0.351463,1.19373,-3.11664
0.416345,1.18924,-3.11124
0.482605,1.18479,-3.12034
0.548825,1.18035,-3.12947
0.615607,1.1759,-3.14285
0.685894,1.17143,-3.17866
0.760755,1.16687,-3.23888
0.822723,1.16245,-3.21974
-1.14688,1.2349,-3.54094
-1.06478,1.22946,-3.49994
-0.984946,1.22416,-3.46666
-0.905156,1.21887,-3.42387
-0.828026,1.21375,-3.39432
-0.753124,1.20877,-3.37864
-0.67898,1.20383,-3.36414
-0.605845,1.19896,-3.3555
-0.528112,1.19386,-3.2489
-0.455365,1.18905,-3.19641
-0.384337,1.18435,-3.15096
-0.315771,1.17976,-3.17322
-0.246967,1.17515,-3.19852
-0.178039,1.17055,-3.19515
-0.109223,1.16595,-3.20449
-0.039566,1.16127,-3.24332
0.0289965,1.1567,-3.24081
0.0959082,1.15226,-3.21342
0.161917,1.14788,-3.18587
0.228705,1.14342,-3.18026
0.294465,1.13905,-3.16732
0.359681,1.13471,-3.15444
0.425021,1.13035,-3.14766
0.490752,1.12597,-3.14743
0.558221,1.12145,-3.16224
0.625744,1.11694,-3.17687
0.699784,1.11195,-3.23307
0.767739,1.10741,-3.24661
0.829928,1.10327,-3.22731
0.891435,1.09918,-3.20796
-1.23643,1.17409,-3.6197
-1.14766,1.16913,-3.54743
-1.06458,1.16424,-3.50157
-0.98444,1.1594,-3.46788
-0.905435,1.15464,-3.43426
-0.827365,1.14996,-3.3988
-0.75286,1.14521,-3.3908
-0.679083,1.14046,-3.38602
-0.60571,1.13575,-3.38121
-0.530811,1.13135,-3.33902
-0.455507,1.1274,-3.25406
-0.383814,1.12316,-3.21622
-0.314182,1.11844,-3.23364
-0.24445,1.11362,-3.25929
-0.17482,1.10945,-3.22713
-0.105318,1.10477,-3.24184
-0.0353477,1.09992,-3.26941
0.0339935,1.09537,-3.27343
0.101678,1.09123,-3.24999
0.169215,1.08699,-3.23663
0.237025,1.08261,-3.23424
0.303603,1.07842,-3.2215
0.369388,1.07431,-3.20633
0.435773,1.07005,-3.202
0.502177,1.06574,-3.20073
0.567771,1.06154,-3.19551
0.635688,1.05697,-3.20891
0.709107,1.05166,-3.25731
0.774889,1.04741,-3.25504
0.837289,1.04358,-3.23547
0.899036,1.03978,-3.21605
0.960074,1.03603,-3.19647
-1.23736,1.1069,-3.62515
-1.14981,1.10269,-3.56317
-1.064,1.09861,-3.50046
-0.98299,1.09432,-3.46153
-0.906163,1.08973,-3.44873
-0.830184,1.08515,-3.43829
-0.754113,1.08072,-3.42047
-0.678979,1.07629,-3.40542
-0.605182,1.07171,-3.40111
-0.531294,1.06733,-3.38731
-0.455584,1.06417,-3.31151
-0.383205,1.06025,-3.28079
-0.312527,1.05549,-3.29425
-0.241814,1.0507,-3.30869
-0.171497,1.04718,-3.26574
-0.101332,1.04243,-3.28027
-0.0310675,1.03765,-3.29588
0.0387945,1.03314,-3.30003
0.107589,1.02905,-3.28784
0.176562,1.02471,-3.28669
0.245411,1.02033,-3.28776
0.312815,1.01633,-3.27531
0.37886,1.01259,-3.2548
0.44652,1.0083,-3.25526
0.514844,1.00381,-3.26314
0.580685,0.999859,-3.25315
0.646024,0.995943,-3.24303
0.716674,0.990897,-3.26985
0.782123,0.986889,-3.26367
0.844793,0.983343,-3.24415
0.906793,0.979838,-3.2247
0.967422,0.976493,-3.20181
1.03094,0.972598,-3.19606
-1.2575,1.03654,-3.74982
-1.15425,1.03515,-3.59437
-1.06825,1.03175,-3.53483
-0.989542,1.02739,-3.51976
-0.911573,1.02306,-3.50523
-0.834052,1.01882,-3.48855
-0.75767,1.01449,-3.47679
-0.681789,1.01024,-3.46389
-0.605533,1.00645,-3.43533
-0.530786,1.00244,-3.41708
-0.455689,0.999283,-3.37111
-0.382509,0.995624,-3.34462
-0.310846,0.990798,-3.35773
-0.23902,0.987264,-3.32994
-0.168173,0.983938,-3.29755
-0.0980573,0.980168,-3.28048
-0.0283357,0.976141,-3.27224
0.0412097,0.971912,-3.27066
0.110951,0.96738,-3.27822
0.184179,0.960924,-3.33942
0.25388,0.956584,-3.34102
0.32162,0.952979,-3.32339
0.388424,0.949514,-3.30315
0.457178,0.945171,-3.30669
0.527673,0.940226,-3.32575
0.594361,0.936452,-3.31544
0.658144,0.93338,-3.28868
0.724297,0.929511,-3.28238
0.789423,0.925823,-3.27238
0.852363,0.922572,-3.25289
0.91384,0.91954,-3.22934
0.976405,0.916148,-3.21499
1.0401,0.912434,-3.20858
-1.34294,0.971117,-3.77671
-1.25765,0.967133,-3.75039
-1.16278,0.965587,-3.65302
-1.07812,0.962328,-3.61051
-0.997943,0.958275,-3.59305
-0.918528,0.95426,-3.57578
-0.839794,0.950308,-3.55796
-0.761814,0.946398,-3.54024
-0.684576,0.94253,-3.52257
-0.604772,0.940735,-3.45233
-0.527726,0.938471,-3.39708
-0.45156,0.937074,-3.32257
-0.37795,0.935069,-3.26604
-0.306695,0.931134,-3.25839
-0.235802,0.928746,-3.21472
-0.16598,0.925284,-3.19794
-0.0963796,0.920913,-3.20289
-0.0272437,0.916972,-3.19838
0.0411653,0.913408,-3.18598
0.109291,0.909652,-3.17852
0.177412,0.905621,-3.17755
0.249564,0.899035,-3.23124
0.32345,0.891988,-3.29333
0.397622,0.885285,-3.34689
0.467681,0.880722,-3.35575
0.538134,0.87598,-3.36829
0.604437,0.872781,-3.35024
0.668234,0.870259,-3.31975
0.731571,0.867634,-3.29236
0.796722,0.86423,-3.28078
0.859201,0.86149,-3.2573
0.92087,0.858806,-3.23365
0.985146,0.85526,-3.22666
1.04925,0.851678,-3.22075
1.17911,0.831732,-3.50837
-1.42927,0.904616,-3.80012
-1.34291,0.900953,-3.77468
-1.25749,0.897352,-3.74908
-1.17307,0.893804,-3.72359
-1.08743,0.891028,-3.68216
-1.00615,0.887222,-3.66498
-0.925643,0.88345,-3.64802
-0.845867,0.87972,-3.63105
-0.766816,0.876035,-3.61401
-0.675291,0.880993,-3.41997
-0.596911,0.879833,-3.35594
-0.52158,0.877589,-3.31578
-0.446558,0.876682,-3.25066
-0.37451,0.873689,-3.22824
-0.303006,0.871757,-3.18637
-0.232838,0.868658,-3.16799
-0.163262,0.86492,-3.16237
-0.0937404,0.860302,-3.17341
-0.0248184,0.856658,-3.16674
0.0424946,0.854497,-3.13378
0.109848,0.851322,-3.11994
0.177451,0.84748,-3.11843
0.248045,0.841282,-3.15818
0.320275,0.83442,-3.20867
0.393324,0.827551,-3.25841
0.474545,0.81683,-3.37199
0.544764,0.812358,-3.37953
0.610729,0.809736,-3.35675
0.675784,0.807213,-3.33311
0.739934,0.804777,-3.30881
0.803406,0.802341,-3.28528
0.866065,0.799959,-3.2616
0.929532,0.797093,-3.24617
0.994238,0.793681,-3.23973
1.05858,0.790282,-3.23342
1.12254,0.786902,-3.22718
1.29219,0.753754,-3.66767
-1.43458,0.832183,-3.82549
-1.34811,0.828763,-3.80279
-1.26164,0.825699,-3.77447
-1.1762,0.822702,-3.74602
-1.09348,0.819074,-3.72992
-1.01542,0.813687,-3.74562
-0.928849,0.812647,-3.68535
-0.848438,0.809159,-3.66906
-0.74539,0.821538,-3.38299
-0.666955,0.820523,-3.32954
-0.592593,0.817211,-3.31584
-0.517905,0.815095,-3.28303
-0.442597,0.815807,-3.20517
-0.370568,0.813968,-3.17036
-0.29982,0.811461,-3.14719
-0.229925,0.808357,-3.13418
-0.160544,0.804805,-3.12867
-0.0912437,0.800315,-3.13801
-0.0230087,0.797791,-3.11734
0.0438061,0.796269,-3.08213
0.111735,0.792233,-3.08556
0.179806,0.787883,-3.09376
0.250845,0.780967,-3.13976
0.324452,0.772686,-3.20495
0.398908,0.764598,-3.26637
0.475924,0.755584,-3.34008
0.551297,0.748201,-3.38959
0.617025,0.746196,-3.36296
0.682167,0.744102,-3.33827
0.746469,0.74206,-3.31348
0.810114,0.739995,-3.28965
0.872997,0.73796,-3.26603
0.938277,0.734748,-3.25879
1.00326,0.731516,-3.25213
1.06362,0.729783,-3.22599
1.13443,0.724314,-3.2494
1.29092,0.691284,-3.63082
1.37412,0.683097,-3.68603
-1.43885,0.759095,-3.84522
-1.35265,0.755748,-3.82708
-1.2672,0.752464,-3.80864
-1.18179,0.749567,-3.78502
-1.09778,0.746484,-3.76492
-1.01531,0.743068,-3.75045
-0.935645,0.738382,-3.75515
-0.833946,0.749227,-3.53439
-0.737962,0.760431,-3.31298
-0.661025,0.75935,-3.2711
-0.587012,0.756507,-3.25511
-0.5131,0.754542,-3.22737
-0.438564,0.755688,-3.15723
-0.367263,0.753359,-3.1363
-0.296761,0.751014,-3.11617
-0.22702,0.748825,-3.0945
-0.157949,0.745787,-3.08475
-0.0891197,0.741884,-3.08686
-0.0215418,0.740271,-3.05901
0.0455136,0.738031,-3.03999
0.114302,0.732557,-3.06329
0.182529,0.728009,-3.07452
0.253707,0.7206,-3.12213
0.327833,0.711348,-3.19242
0.403444,0.701926,-3.26391
0.479987,0.692741,-3.33152
0.558677,0.682936,-3.40592
0.62721,0.679876,-3.39686
0.69144,0.678941,-3.36235
0.754562,0.678089,-3.32751
0.816966,0.677132,-3.29461
0.88099,0.675031,-3.27596
0.940575,0.674598,-3.23807
0.999848,0.673897,-3.20403
1.05789,0.673338,-3.16898
1.15169,0.658897,-3.29474
1.2647,0.63825,-3.49006
1.37615,0.619345,-3.66305
-1.44376,0.684848,-3.86838
-1.35691,0.68186,-3.84972
-1.27085,0.678929,-3.83089
-1.18486,0.676427,-3.80706
-1.1021,0.672663,-3.80007
-1.01908,0.669413,-3.78689
-0.936424,0.666415,-3.77095
-0.827918,0.684979,-3.48522
-0.733761,0.697442,-3.28018
-0.655302,0.698834,-3.21517
-0.581239,0.697003,-3.19083
-0.508496,0.694497,-3.17524
-0.435557,0.693965,-3.13631
-0.364048,0.692836,-3.10529
-0.293726,0.690758,-3.08617
-0.224145,0.688823,-3.06582
-0.155412,0.687559,-3.0381
-0.0872721,0.685056,-3.02534
-0.0199841,0.683267,-3.00469
0.0477555,0.679255,-3.00994
0.116299,0.673823,-3.0314
0.185055,0.66841,-3.05251
0.257538,0.659174,-3.1163
0.33132,0.649798,-3.18093
0.406157,0.64051,-3.24387
0.48246,0.630943,-3.3092
0.563801,0.618591,-3.40418
0.637903,0.612179,-3.43371
0.702766,0.611672,-3.39949
0.766559,0.61123,-3.36516
0.825114,0.613111,-3.30674
0.882501,0.614861,-3.25058
0.942784,0.614546,-3.21694
1.00182,0.614391,-3.18217
1.0597,0.614348,-3.14681
1.13692,0.605754,-3.20011
1.23125,0.590556,-3.32054
1.37651,0.556319,-3.63349
-1.44822,0.609828,-3.88906
-1.35926,0.607956,-3.86139
-1.27132,0.606158,-3.83348
-1.18475,0.604224,-3.80772
-1.10288,0.599912,-3.80928
-1.02131,0.595613,-3.81088
-0.940026,0.59134,-3.81234
-0.822114,0.621182,-3.4382
-0.730973,0.633259,-3.26374
-0.650224,0.638349,-3.16774
-0.576516,0.636946,-3.14326
-0.503595,0.635795,-3.11658
-0.431894,0.633981,-3.09746
-0.360923,0.632285,-3.07749
-0.290684,0.630911,-3.05455
-0.221283,0.628681,-3.041
-0.152572,0.627186,-3.02014
-0.0849934,0.627192,-2.98421
-0.0177677,0.625121,-2.97014
0.049964,0.62078,-2.97952
0.117635,0.616463,-2.98867
0.185617,0.611644,-3.0029
0.258111,0.601447,-3.07088
0.332276,0.590814,-3.14252
0.40698,0.580933,-3.20603
0.486448,0.567909,-3.29982
0.569082,0.553785,-3.40342
0.64801,0.543809,-3.46568
0.71017,0.545967,-3.41016
0.770663,0.548282,-3.35388
0.829469,0.550756,-3.29684
0.886573,0.553389,-3.23904
0.94487,0.554623,-3.19521
1.00828,0.552678,-3.18186
1.07435,0.549202,-3.18308
1.14023,0.545716,-3.18451
1.23174,0.530707,-3.29264
1.31118,0.521685,-3.34467
-1.43706,0.542027,-3.82607
-1.3528,0.538298,-3.82231
-1.26897,0.53459,-3.81855
-1.1864,0.530362,-3.82023
-1.10483,0.525631,-3.8271
-1.02343,0.520902,-3.83403
-0.94219,0.516187,-3.8409
-0.810212,0.564334,-3.32892
-0.725481,0.572252,-3.21575
-0.646444,0.576691,-3.13782
-0.572726,0.575971,-3.1107
-0.501018,0.573047,-3.10516
-0.428606,0.573405,-3.06854
-0.357735,0.572253,-3.04676
-0.287656,0.571338,-3.02314
-0.21843,0.570904,-2.99539
-0.150135,0.570359,-2.96912
-0.08233,0.568001,-2.96007
-0.0152316,0.566317,-2.94502
0.0520813,0.562749,-2.94755
0.119423,0.558756,-2.95403
0.186374,0.555192,-2.95667
0.257554,0.545757,-3.01241
0.330994,0.534847,-3.08094
0.407772,0.521773,-3.16822
0.489177,0.505892,-3.27968
0.572244,0.490464,-3.38614
0.656767,0.475513,-3.48745
0.718753,0.478799,-3.42816
0.779161,0.482125,-3.36923
0.837823,0.485613,-3.30957
0.895068,0.489052,-3.25103
0.953992,0.490653,-3.20895
1.02087,0.487204,-3.21055
1.08752,0.48377,-3.21211
1.154,0.480324,-3.21387
1.21837,0.477806,-3.2079
1.31044,0.46216,-3.31226
1.39361,0.45135,-3.37538
-1.43256,0.471285,-3.79876
-1.34846,0.467704,-3.79546
-1.2648,0.464127,-3.79231
-1.18681,0.456669,-3.82443
-1.10765,0.449757,-3.85144
-1.0261,0.444692,-3.86178
-0.944653,0.439611,-3.8723
-0.798777,0.508985,-3.22406
-0.718592,0.513767,-3.15126
-0.642579,0.515427,-3.10665
-0.56959,0.514084,-3.08879
-0.496001,0.515967,-3.04328
-0.42515,0.513635,-3.03468
-0.354778,0.511414,-3.02532
-0.284807,0.510358,-3.00624
-0.215589,0.510806,-2.97467
-0.147303,0.510261,-2.95191
-0.0792283,0.506809,-2.95396
-0.0119921,0.505359,-2.9393
0.0544048,0.504475,-2.92019
0.121626,0.500545,-2.92664
0.188612,0.496818,-2.93145
0.258068,0.489314,-2.96738
0.33002,0.479342,-3.02329
0.404661,0.467447,-3.09446
0.488577,0.447347,-3.23166
0.576229,0.426337,-3.3751
0.660949,0.4104,-3.4766
0.728353,0.410077,-3.45231
0.789454,0.413934,-3.39501
0.84902,0.417829,-3.33801
0.906928,0.421856,-3.28055
0.963004,0.426122,-3.22179
1.03009,0.42284,-3.22278
1.09697,0.419553,-3.2239
1.16118,0.41762,-3.21458
1.22494,0.415698,-3.20534
1.28824,0.4138,-3.19609
1.40231,0.386918,-3.37884
-1.43228,0.397967,-3.79402
-1.34571,0.396134,-3.77776
-1.26348,0.391638,-3.78373
-1.18536,0.383934,-3.81608
-1.10668,0.376283,-3.84781
-1.02747,0.368673,-3.87905
-0.945553,0.363589,-3.88969
-0.793319,0.448001,-3.18002
-0.714944,0.451584,-3.12456
-0.640525,0.451332,-3.1003
-0.567077,0.450975,-3.07719
-0.493482,0.453338,-3.0329
-0.422854,0.450108,-3.03311
-0.352199,0.448591,-3.02
-0.282129,0.447368,-3.00482
-0.212723,0.447559,-2.97888
-0.144275,0.448237,-2.94949
-0.0761242,0.445416,-2.9474
-0.00886108,0.444572,-2.93026
0.0570715,0.445471,-2.90004
0.124346,0.441405,-2.90793
0.191939,0.436626,-2.92125
0.260982,0.429658,-2.95108
0.331571,0.421146,-2.99236
0.404288,0.410847,-3.04678
0.488635,0.388651,-3.18955
0.575953,0.366406,-3.33166
0.662259,0.34783,-3.44562
0.740259,0.33848,-3.4908
0.801564,0.343374,-3.43117
0.861111,0.348425,-3.37093
0.918953,0.35359,-3.31041
0.975685,0.358459,-3.25258
1.03898,0.358095,-3.2331
1.10371,0.35643,-3.22323
1.16799,0.354769,-3.21349
1.23176,0.353147,-3.20362
1.29508,0.351532,-3.19387
1.41741,0.318699,-3.40593
1.51382,0.301033,-3.50926
-1.54209,0.311051,-3.91813
-1.44321,0.316384,-3.84921
-1.35048,0.318769,-3.8033
-1.2666,0.315203,-3.80272
-1.18683,0.308287,-3.82738
-1.10672,0.301404,-3.8517
-1.02631,0.294552,-3.87572
-0.880627,0.367353,-3.30956
-0.789784,0.384924,-3.1556
-0.710538,0.390803,-3.08889
-0.637913,0.388003,-3.08633
-0.564731,0.387321,-3.06844
-0.491759,0.388209,-3.03938
-0.420675,0.385701,-3.03522
-0.349696,0.384952,-3.01849
-0.279378,0.384751,-2.99806
-0.209843,0.384491,-2.97828
-0.141359,0.387177,-2.93776
-0.0738,0.388088,-2.91023
-0.00640848,0.386154,-2.9031
0.0619451,0.380247,-2.9241
0.133243,0.368088,-2.98891
0.20104,0.365116,-2.98908
0.270449,0.359008,-3.01118
0.338141,0.355797,-3.0131
0.409146,0.347916,-3.04739
0.487745,0.33156,-3.13995
0.575538,0.307119,-3.2875
0.661901,0.287184,-3.40325
0.749192,0.268534,-3.50952
0.815991,0.269686,-3.4805
0.877128,0.274761,-3.42517
0.935764,0.280643,-3.36485
0.99259,0.286714,-3.30374
1.05771,0.285903,-3.28929
1.12339,0.284343,-3.28002
1.18859,0.282811,-3.27069
1.25377,0.281018,-3.26324
1.32681,0.274404,-3.28784
1.42887,0.251619,-3.4191
1.53474,0.228096,-3.55445
-1.5429,0.234737,-3.91762
-1.45,0.236217,-3.88221
-1.35607,0.239668,-3.83345
-1.27086,0.23683,-3.82876
-1.19047,0.229765,-3.8534
-1.10969,0.222812,-3.8772
-1.02858,0.215926,-3.90045
-0.881765,0.296161,-3.32847
-0.798384,0.303656,-3.25584
-0.720395,0.305596,-3.22149
-0.637736,0.319569,-3.10614
-0.562487,0.323175,-3.06151
-0.490509,0.320972,-3.05626
-0.418583,0.320388,-3.0403
-0.346747,0.32383,-2.9977
-0.276511,0.323443,-2.9809
-0.206917,0.319034,-2.99092
-0.137565,0.316776,-2.98676
-0.0684638,0.313768,-2.98764
0.000153146,0.311659,-2.9827
0.0683695,0.309573,-2.97771
0.13619,0.307501,-2.97274
0.2043,0.304034,-2.97693
0.274392,0.296721,-3.00605
0.344718,0.289684,-3.03328
0.416961,0.28045,-3.07454
0.493497,0.266589,-3.14526
0.575971,0.24734,-3.25004
0.662805,0.225638,-3.36986
0.757911,0.19805,-3.52639
0.825089,0.199633,-3.49739
0.891254,0.201306,-3.46807
0.952619,0.206207,-3.41869
1.01242,0.211287,-3.36855
1.07957,0.209891,-3.35929
1.14688,0.208058,-3.35288
1.21529,0.205207,-3.3529
1.28345,0.202363,-3.35296
1.3598,0.194263,-3.38557
1.44562,0.180742,-3.45148
1.55083,0.156674,-3.58191
-1.5473,0.15517,-3.935
-1.4576,0.154126,-3.91946
-1.36868,0.153115,-3.90391
-1.27755,0.155007,-3.86993
-1.19463,0.149607,-3.88291
-1.11228,0.14357,-3.89995
-1.03061,0.136549,-3.92323
-0.891801,0.211284,-3.42851
-0.799552,0.2317,-3.28005
-0.718813,0.238308,-3.21954
-0.642559,0.239125,-3.19582
-0.567379,0.239519,-3.17498
-0.492333,0.242319,-3.13934
-0.41788,0.247959,-3.08633
-0.343885,0.262136,-2.9808
-0.273502,0.264486,-2.94908
-0.203961,0.253065,-3.00245
-0.13376,0.245559,-3.03153
-0.0633756,0.239485,-3.05174
0.00617646,0.23774,-3.04546
0.0755031,0.235336,-3.0433
0.144059,0.234084,-3.03422
0.212431,0.232161,-3.02933
0.281467,0.228244,-3.03657
0.349548,0.225757,-3.03523
0.424776,0.212097,-3.10101
0.502305,0.196997,-3.17511
0.582047,0.180911,-3.25475
0.666852,0.16077,-3.35815
0.762713,0.131025,-3.51803
0.834251,0.128799,-3.51423
0.901912,0.129861,-3.49111
0.966948,0.13255,-3.45861
1.03322,0.13339,-3.4372
1.10111,0.132366,-3.42688
1.16846,0.131389,-3.41641
1.23414,0.131263,-3.4011
1.29893,0.13135,-3.38469
1.36879,0.127687,-3.39016
1.46755,0.105553,-3.50243
1.56676,0.0844248,-3.60837
-1.4796,0.0578769,-4.03351
-1.38721,0.0587619,-4.00827
-1.29459,0.0609899,-3.97523
-1.20433,0.061985,-3.94982
-1.1203,0.0565265,-3.96295
-1.03628,0.0511024,-3.97589
-0.905938,0.117252,-3.56629
-0.803445,0.153935,-3.33255
-0.723496,0.157939,-3.29205
-0.64516,0.161348,-3.25533
-0.568961,0.1622,-3.2338
-0.493257,0.164399,-3.20462
-0.418136,0.168935,-3.16211
-0.339437,0.213116,-2.89036
-0.270398,0.207881,-2.90547
-0.201196,0.198523,-2.94431
-0.13006,0.174881,-3.06503
-0.0594445,0.171261,-3.0705
0.0110285,0.167589,-3.07628
0.0803732,0.167241,-3.06317
0.15019,0.163964,-3.06684
0.221742,0.156218,-3.09587
0.291491,0.152912,-3.09971
0.363206,0.145788,-3.12513
0.431497,0.14461,-3.11703
0.508865,0.129695,-3.1861
0.589481,0.11223,-3.26917
0.672095,0.0943035,-3.35445
0.770706,0.0601787,-3.5296
0.845061,0.0555084,-3.5403
0.90993,0.0601915,-3.49917
0.979815,0.059083,-3.49032
1.04754,0.0594729,-3.47331
1.11451,0.0599539,-3.45593
1.18082,0.0604459,-3.43864
1.24652,0.0609185,-3.42159
1.31155,0.0614214,-3.40451
1.37811,0.060414,-3.39581
1.46386,0.0462088,-3.45897
1.55039,0.0321937,-3.52086
1.63761,0.0183954,-3.58135
-1.39942,-0.0320615,-4.0763
-1.30677,-0.0305991,-4.05039
-1.2157,-0.0297413,-4.02806
-1.12687,-0.0305586,-4.01522
-1.04018,-0.0334914,-4.01423
-0.953067,-0.0350586,-4.00579
-0.813231,0.0633918,-3.44628
-0.728772,0.074064,-3.37216
-0.64465,0.0895993,-3.27181
-0.566952,0.0941213,-3.23227
-0.489399,0.103311,-3.16751
-0.408932,0.139088,-2.95842
-0.336487,0.153234,-2.86786
-0.267366,0.150848,-2.86734
-0.198381,0.140319,-2.91086
-0.127747,0.119788,-3.00815
-0.0568087,0.111007,-3.04185
0.0135531,0.107329,-3.04807
0.0838345,0.103461,-3.05533
0.153895,0.0999198,-3.06087
0.224426,0.094864,-3.0745
0.296184,0.0873041,-3.10144
0.369808,0.0769203,-3.14328
0.441768,0.0705005,-3.16401
0.513003,0.065494,-3.17724
0.589941,0.0525983,-3.23203
0.675578,0.0297933,-3.3387
0.773932,-0.00560228,-3.51098
0.857518,-0.0205228,-3.57542
0.920495,-0.0126856,-3.5208
0.985715,-0.00853674,-3.4857
1.05709,-0.0111058,-3.48572
1.12746,-0.0130257,-3.48244
1.19417,-0.0121572,-3.46478
1.26024,-0.0112974,-3.44729
1.32559,-0.0103794,-3.42963
1.39698,-0.0143864,-3.43743
1.47805,-0.0253304,-3.48085
1.55335,-0.0318782,-3.50163
1.6288,-0.0384069,-3.52227
-1.50258,-0.122871,-4.14916
-1.40373,-0.116377,-4.09898
-1.31104,-0.115112,-4.07649
-1.21932,-0.113814,-4.054
-1.12855,-0.112478,-4.03148
-1.04204,-0.116303,-4.03597
-0.911061,-0.041317,-3.63152
-0.815327,-0.0149888,-3.4809
-0.725613,0.00725167,-3.35213
-0.643322,0.0191937,-3.27709
-0.563948,0.028903,-3.21391
-0.485839,0.0414266,-3.13662
-0.403785,0.0905114,-2.87252
-0.332877,0.0997451,-2.81323
-0.264261,0.0964925,-2.8179
-0.195605,0.0835179,-2.87207
-0.125639,0.0674834,-2.94159
-0.0546434,0.0541136,-2.99737
0.0163419,0.0459639,-3.02657
0.0870454,0.0404285,-3.04251
0.157788,0.0350738,-3.05752
0.228604,0.0297313,-3.07245
0.300262,0.0226805,-3.09594
0.372978,0.0140913,-3.12708
0.444256,0.00883531,-3.1415
0.516004,0.00292263,-3.15918
0.590304,-0.00652938,-3.19443
0.674231,-0.0282568,-3.29052
0.864917,-0.0917161,-3.58059
0.932589,-0.0880615,-3.55026
0.994178,-0.0791047,-3.494
1.06257,-0.0783221,-3.47817
1.13403,-0.080986,-3.47936
1.20525,-0.0836483,-3.48058
1.27502,-0.0852982,-3.4769
1.34062,-0.0838473,-3.45815
1.41623,-0.0906902,-3.4799
1.50036,-0.103733,-3.53173
1.57838,-0.111786,-3.55922
1.655,-0.118637,-3.58084
-1.63657,-0.24419,-4.36089
-1.51905,-0.221445,-4.2334
-1.41118,-0.205405,-4.13964
-1.31517,-0.200602,-4.10173
-1.22054,-0.195749,-4.0638
-1.12738,-0.191009,-4.02664
-1.04095,-0.195244,-4.03367
-0.900648,-0.0982293,-3.54555
-0.810912,-0.0808523,-3.44815
-0.724903,-0.065575,-3.36143
-0.641488,-0.050358,-3.27539
-0.560229,-0.0337981,-3.18323
-0.481408,-0.0161771,-3.08634
-0.398204,0.0465952,-2.77168
-0.32912,0.0489575,-2.74966
-0.261204,0.0423866,-2.77078
-0.192844,0.0269362,-2.83453
-0.123147,0.0109664,-2.90057
-0.0523566,-0.00325332,-2.95802
0.0184639,-0.0120096,-2.9892
0.089707,-0.0205726,-3.01939
0.161219,-0.0285769,-3.04684
0.232594,-0.0352014,-3.06769
0.304218,-0.0419058,-3.08887
0.37525,-0.0469304,-3.10208
0.446584,-0.0524567,-3.11765
0.517625,-0.0573433,-3.13019
0.591882,-0.0671469,-3.16587
0.674533,-0.0880641,-3.2537
0.871687,-0.16263,-3.58183
0.947339,-0.167478,-3.59347
1.00858,-0.156675,-3.53208
1.08459,-0.162791,-3.54977
1.1544,-0.162734,-3.53872
1.22308,-0.162118,-3.52516
1.29114,-0.161459,-3.5115
1.35834,-0.160557,-3.4968
1.43415,-0.16715,-3.5168
1.51953,-0.181087,-3.57065
1.60249,-0.19253,-3.61288
-1.5432,-0.331314,-4.35843
-1.41908,-0.296494,-4.18284
-1.32269,-0.291733,-4.14793
-1.22697,-0.286017,-4.10877
-1.13264,-0.280233,-4.06949
-1.04399,-0.281971,-4.06524
-0.893246,-0.159532,-3.487
-0.805871,-0.145001,-3.40884
-0.722135,-0.133763,-3.34618
-0.638463,-0.116688,-3.25694
-0.557645,-0.100487,-3.17208
-0.4745,-0.0609265,-2.98053
-0.394501,-0.0076149,-2.72678
-0.325834,-0.00554122,-2.70792
-0.258212,-0.0121176,-2.72859
-0.190173,-0.0263154,-2.7839
-0.120388,-0.0486783,-2.87616
-0.0498219,-0.0621454,-2.9278
0.0209575,-0.0716079,-2.96118
0.0925954,-0.082408,-3.00053
0.164493,-0.0918492,-3.03365
0.235384,-0.0970225,-3.04748
0.306424,-0.102443,-3.06242
0.376882,-0.106448,-3.07099
0.448214,-0.112295,-3.08783
0.519407,-0.11769,-3.10262
0.593923,-0.128315,-3.14078
0.678687,-0.15323,-3.2426
0.880895,-0.237102,-3.59678
0.955094,-0.239703,-3.59845
1.026,-0.238842,-3.58479
1.09991,-0.241865,-3.58842
1.17719,-0.248536,-3.60819
1.24631,-0.247112,-3.59223
1.31357,-0.244554,-3.57134
1.38005,-0.241964,-3.55043
1.44429,-0.238093,-3.52399
1.52945,-0.252041,-3.57581
1.62156,-0.270776,-3.64849
-1.42986,-0.392896,-4.24248
-1.33884,-0.396663,-4.24768
-1.244,-0.39418,-4.22539
-1.14717,-0.386657,-4.18108
-1.05034,-0.376197,-4.12406
-0.889299,-0.227146,-3.46007
-0.799779,-0.206171,-3.35849
-0.717059,-0.195703,-3.30316
-0.635544,-0.183396,-3.24003
-0.553905,-0.162764,-3.14088
-0.463255,-0.0809268,-2.77605
-0.390417,-0.058276,-2.66925
-0.322284,-0.0560424,-2.6513
-0.255223,-0.0653461,-2.68335
-0.187474,-0.0813371,-2.74423
-0.118034,-0.103115,-2.82992
-0.0463696,-0.127806,-2.92793
0.0229137,-0.12815,-2.92098
0.0946437,-0.140703,-2.96651
0.166365,-0.150386,-2.99963
0.23657,-0.154122,-3.00724
0.307487,-0.159924,-3.02368
0.377095,-0.162532,-3.02648
0.451145,-0.174539,-3.06936
0.521804,-0.178983,-3.07997
0.601359,-0.198406,-3.15425
0.689685,-0.229148,-3.27639
0.898916,-0.324108,-3.66143
0.973742,-0.326163,-3.6612
1.0502,-0.330513,-3.6707
1.12566,-0.333827,-3.67583
1.1995,-0.335604,-3.67452
1.2734,-0.337774,-3.6749
1.33377,-0.327089,-3.62135
1.40089,-0.324037,-3.59998
1.46641,-0.320232,-3.57555
1.53311,-0.318132,-3.55835
1.63648,-0.346712,-3.66931
-1.44219,-0.493412,-4.31096
-1.34983,-0.496917,-4.31542
-1.25754,-0.500076,-4.31847
-1.15869,-0.490996,-4.27046
-1.06337,-0.485585,-4.23793
-0.885507,-0.294945,-3.43455
-0.791415,-0.260876,-3.28427
-0.707853,-0.245034,-3.21009
-0.627135,-0.231213,-3.14454
-0.550273,-0.225183,-3.11145
-0.458801,-0.132875,-2.72188
-0.386311,-0.107575,-2.60999
-0.319229,-0.111543,-2.61908
-0.252364,-0.121904,-2.65449
-0.184609,-0.143109,-2.73442
-0.115376,-0.161241,-2.80154
-0.0443355,-0.182678,-2.88207
0.0270116,-0.196303,-2.93042
0.0961953,-0.196561,-2.92402
0.165572,-0.199095,-2.92697
0.235064,-0.20263,-2.93402
0.30579,-0.209724,-2.95558
0.376866,-0.217081,-2.97818
0.450407,-0.22907,-3.01957
0.52529,-0.242275,-3.06582
0.607561,-0.266971,-3.15854
0.700181,-0.305299,-3.30622
0.915487,-0.410771,-3.71687
0.98568,-0.405453,-3.68743
1.06218,-0.409157,-3.69442
1.13678,-0.410811,-3.69318
1.21049,-0.411821,-3.68939
1.28881,-0.418111,-3.70682
1.35913,-0.416231,-3.69151
1.42225,-0.40799,-3.6508
1.48931,-0.404512,-3.62927
1.5543,-0.39987,-3.60317
-1.45371,-0.594991,-4.37473
-1.35837,-0.595567,-4.36793
-1.26399,-0.596775,-4.3637
-1.17001,-0.597734,-4.35854
-1.07019,-0.585486,-4.30102
-0.892835,-0.388475,-3.51148
-0.784713,-0.318612,-3.2272
-0.701246,-0.300458,-3.14807
-0.621655,-0.287711,-3.09052
-0.545094,-0.280404,-3.05459
-0.457213,-0.200387,-2.73241
-0.385399,-0.18169,-2.65226
-0.317165,-0.180215,-2.63999
-0.249742,-0.188259,-2.66514
-0.181775,-0.203575,-2.71875
-0.112129,-0.227025,-2.80411
-0.0414235,-0.244203,-2.86476
0.0300238,-0.258632,-2.91457
0.0985878,-0.255798,-2.89694
0.168041,-0.258945,-2.90268
0.237182,-0.261556,-2.90636
0.307865,-0.26894,-2.9286
0.378174,-0.274791,-2.94487
0.452732,-0.289687,-2.99621
0.531962,-0.311973,-3.07609
0.615834,-0.339755,-3.17709
0.70288,-0.369331,-3.28482
0.922463,-0.484965,-3.71748
0.996364,-0.483959,-3.70652
1.10416,-0.527359,-3.86649
1.18104,-0.528944,-3.86541
1.25315,-0.52538,-3.84458
1.3171,-0.513698,-3.79269
1.37916,-0.501575,-3.73924
1.44182,-0.491568,-3.69405
1.5103,-0.488433,-3.67524
1.59303,-0.499142,-3.70939
-1.36984,-0.700879,-4.43864
-1.26986,-0.694128,-4.40502
-1.17425,-0.693368,-4.39422
-1.08342,-0.701467,-4.417
-0.992509,-0.709862,-4.44088
-0.779155,-0.378581,-3.18198
-0.696706,-0.361445,-3.11092
-0.61787,-0.349784,-3.06067
-0.542507,-0.346818,-3.04328
-0.465529,-0.329287,-2.97119
-0.391409,-0.317755,-2.92182
-0.317274,-0.282658,-2.78416
-0.247964,-0.299804,-2.84262
-0.177935,-0.300263,-2.83851
-0.107918,-0.305854,-2.85363
-0.0384587,-0.306168,-2.84903
0.0325196,-0.31793,-2.88718
0.101038,-0.315155,-2.87108
0.170253,-0.317692,-2.87482
0.239198,-0.319975,-2.87763
0.309291,-0.326146,-2.89492
0.380785,-0.335505,-2.92403
0.458241,-0.357426,-2.99971
0.538784,-0.382542,-3.0871
0.622585,-0.410402,-3.1845
0.707452,-0.436585,-3.27553
0.831678,-0.523492,-3.59078
0.936226,-0.569847,-3.75575
1.04052,-0.610786,-3.90044
1.13126,-0.629492,-3.96297
1.20364,-0.623505,-3.93451
1.26721,-0.608099,-3.8715
1.32884,-0.592483,-3.80786
1.39194,-0.580381,-3.75727
1.46579,-0.581017,-3.75351
1.53609,-0.578483,-3.73816
1.60575,-0.575947,-3.72286
-1.37733,-0.801708,-4.48462
-1.27877,-0.798772,-4.46695
-1.18256,-0.798824,-4.46017
-1.0871,-0.799215,-4.45465
-0.995597,-0.80829,-4.48055
-0.778727,-0.452849,-3.19062
-0.693807,-0.427525,-3.09368
-0.614561,-0.413489,-3.03762
-0.535644,-0.392239,-2.95573
-0.459863,-0.375485,-2.89017
-0.386565,-0.363164,-2.84069
-0.315157,-0.35589,-2.80944
-0.244871,-0.349997,-2.78323
-0.175275,-0.353598,-2.79109
-0.105922,-0.355205,-2.79183
-0.0360722,-0.3633,-2.81579
0.0337179,-0.369143,-2.83168
0.103584,-0.374844,-2.84705
0.173124,-0.378883,-2.85649
0.242486,-0.382503,-2.86445
0.31363,-0.391644,-2.89206
0.386411,-0.404045,-2.93124
0.463791,-0.425685,-3.00322
0.544988,-0.452373,-3.09301
0.628475,-0.479884,-3.18558
0.715993,-0.511205,-3.29153
0.830432,-0.583993,-3.54417
1.04654,-0.685757,-3.89333
1.13052,-0.69534,-3.9216
1.2207,-0.71261,-3.97698
1.28491,-0.696314,-3.9139
1.34718,-0.679803,-3.8502
1.41154,-0.667673,-3.80205
1.4812,-0.662796,-3.77953
1.55001,-0.65788,-3.75691
-1.29873,-0.927119,-4.60367
-1.19636,-0.918309,-4.56701
-1.09208,-0.901604,-4.5031
-0.998891,-0.908896,-4.52233
-0.778743,-0.529206,-3.20406
-0.691472,-0.49566,-3.08336
-0.611746,-0.479177,-3.02174
-0.532456,-0.454891,-2.93335
-0.45586,-0.431139,-2.84696
-0.382657,-0.415647,-2.78916
-0.311201,-0.3994,-2.72887
-0.241896,-0.404533,-2.74218
-0.172603,-0.40777,-2.74897
-0.103316,-0.412585,-2.76119
-0.0335395,-0.421493,-2.78743
0.0369721,-0.432713,-2.82157
0.107125,-0.439367,-2.84005
0.1766,-0.44255,-2.84665
0.246713,-0.448402,-2.86237
0.318524,-0.459123,-2.89472
0.392507,-0.474345,-2.9424
0.470846,-0.498027,-3.01887
0.552651,-0.525906,-3.10954
0.636625,-0.554335,-3.20197
0.724088,-0.585689,-3.30423
0.835644,-0.655194,-3.53606
0.959452,-0.73614,-3.80643
1.04561,-0.750391,-3.85001
1.1645,-0.810682,-4.04973
1.23487,-0.799071,-4.00544
1.30306,-0.786377,-3.95757
1.36603,-0.769032,-3.89404
1.43591,-0.761876,-3.86508
1.50911,-0.759543,-3.85249
1.58854,-0.764523,-3.86464
-1.10726,-1.03123,-4.63595
-1.0017,-1.00986,-4.55987
-0.785719,-0.628623,-3.2912
-0.690774,-0.570105,-3.09318
-0.610347,-0.551211,-3.02659
-0.529748,-0.520068,-2.9196
-0.453366,-0.496832,-2.83892
-0.380104,-0.480984,-2.78276
-0.308781,-0.468498,-2.73779
-0.239119,-0.472851,-2.74843
-0.169654,-0.471462,-2.74015
-0.100211,-0.476827,-2.75415
-0.0308178,-0.481219,-2.76493
0.0404881,-0.498098,-2.8168
0.110897,-0.505258,-2.83666
0.180659,-0.508831,-2.84473
0.251097,-0.51516,-2.86185
0.32363,-0.527655,-2.89919
0.397642,-0.542525,-2.94428
0.476319,-0.567058,-3.02099
0.558096,-0.595068,-3.109
0.643953,-0.627766,-3.21226
0.73215,-0.660747,-3.31632
0.842174,-0.729003,-3.53554
1.02614,-0.913171,-4.13305
1.10218,-0.905275,-4.10296
1.17628,-0.896035,-4.06855
1.24602,-0.88228,-4.01948
1.31586,-0.870617,-3.9773
1.39064,-0.866886,-3.96102
1.47059,-0.870282,-3.96796
1.55031,-0.873577,-3.97458
-0.78781,-0.714611,-3.3271
-0.690743,-0.647917,-3.11139
-0.608099,-0.619991,-3.0192
-0.53098,-0.607945,-2.97757
-0.45476,-0.592053,-2.9238
-0.380132,-0.574812,-2.86583
-0.307819,-0.56741,-2.83914
-0.236531,-0.56302,-2.82204
-0.165867,-0.562539,-2.81737
-0.0955868,-0.562577,-2.81435
-0.0253729,-0.565412,-2.82019
0.0445556,-0.567345,-2.8232
0.114853,-0.572362,-2.83596
0.184177,-0.573042,-2.83502
0.256221,-0.584989,-2.86966
0.328515,-0.595902,-2.90102
0.403036,-0.611839,-2.9482
0.481253,-0.635098,-3.01842
0.564548,-0.66696,-3.11568
0.650557,-0.700211,-3.21722
0.740535,-0.737067,-3.33001
0.846274,-0.798692,-3.52059
1.19061,-0.986121,-4.09922
1.26267,-0.974191,-4.05819
1.34264,-0.974952,-4.05703
1.42219,-0.975639,-4.05565
-0.814736,-0.888242,-3.62688
-0.690814,-0.727174,-3.13112
-0.608297,-0.700912,-3.048
-0.530847,-0.689894,-3.01156
-0.454363,-0.676377,-2.96753
-0.376669,-0.632085,-2.82961
-0.304214,-0.616037,-2.77801
-0.233495,-0.611827,-2.76257
-0.163236,-0.615327,-2.77067
-0.0927915,-0.622812,-2.79092
-0.0207192,-0.643268,-2.85066
0.0502602,-0.648064,-2.86268
0.1197,-0.644557,-2.84944
0.189517,-0.645545,-2.84989
0.261215,-0.654795,-2.87547
0.333094,-0.663508,-2.89941
0.408604,-0.682094,-2.95332
0.487184,-0.706103,-3.02366
0.570855,-0.738998,-3.12092
0.657732,-0.774401,-3.2257
0.750707,-0.817731,-3.35444
0.857451,-0.882031,-3.54662
1.21264,-1.08946,-4.1662
1.29701,-1.09383,-4.17644
1.38053,-1.09714,-4.18347
-0.691807,-0.811393,-3.16254
-0.609095,-0.786214,-3.08614
-0.527552,-0.753612,-2.98797
-0.445883,-0.69591,-2.81604
-0.372715,-0.682789,-2.77535
-0.300964,-0.6707,-2.73774
-0.230559,-0.668855,-2.73026
-0.160701,-0.665401,-2.71807
-0.0910261,-0.668156,-2.72413
-0.0197325,-0.687411,-2.77862
0.0511314,-0.696127,-2.80216
0.124273,-0.715764,-2.85772
0.194737,-0.718079,-2.86246
0.266614,-0.726633,-2.8855
0.338161,-0.733099,-2.90241
0.415476,-0.756775,-2.96971
0.494659,-0.781818,-3.04098
0.575401,-0.80711,-3.11293
0.661589,-0.841534,-3.21156
0.758273,-0.893741,-3.36213
1.22981,-1.18664,-4.20895
1.31194,-1.18634,-4.20566
1.39353,-1.18585,-4.20183
-0.690662,-0.887669,-3.16771
-0.607662,-0.861464,-3.0916
-0.52565,-0.826308,-2.99015
-0.445263,-0.779197,-2.85486
-0.369653,-0.743582,-2.75225
-0.297794,-0.726238,-2.7015
-0.227639,-0.725971,-2.69919
-0.157566,-0.734481,-2.72175
-0.0876197,-0.73707,-2.72753
-0.0162937,-0.754262,-2.77466
0.0556524,-0.769441,-2.81607
0.127697,-0.780924,-2.84701
0.200066,-0.791665,-2.87584
0.271919,-0.798608,-2.89392
0.344196,-0.8065,-2.91468
0.420769,-0.827172,-2.97156
0.498585,-0.848204,-3.02943
0.582539,-0.882104,-3.12362
0.667851,-0.91444,-3.21336
0.769692,-0.978701,-3.3932
0.934717,-1.16289,-3.91149
1.34187,-1.30371,-4.3015
-0.691235,-0.972475,-3.19447
-0.603993,-0.925221,-3.06382
-0.523309,-0.896666,-2.98443
-0.442208,-0.842316,-2.83446
-0.367369,-0.814655,-2.75761
-0.295204,-0.795886,-2.70512
-0.224756,-0.790344,-2.68885
-0.154687,-0.795514,-2.7019
-0.0844984,-0.801941,-2.71838
-0.0136924,-0.813166,-2.74798
0.0590478,-0.835083,-2.8068
0.131785,-0.850045,-2.8466
0.203385,-0.856119,-2.86209
0.276016,-0.86608,-2.8882
0.349128,-0.876486,-2.91553
0.42527,-0.89541,-2.96611
0.502015,-0.913294,-3.01383
0.584729,-0.944605,-3.0982
0.68011,-1.00231,-3.25458
0.926625,-1.2119,-3.82415
-0.688115,-1.04114,-3.17533
-0.59931,-0.98298,-3.02072
-0.515274,-0.926987,-2.87187
-0.438699,-0.901087,-2.80266
-0.364403,-0.876995,-2.73825
-0.292482,-0.863057,-2.70071
-0.221868,-0.857943,-2.68652
-0.151718,-0.859277,-2.68937
-0.0814375,-0.865977,-2.70642
-0.0110401,-0.872475,-2.72293
0.0601863,-0.884191,-2.75322
0.13345,-0.905145,-2.80792
0.205288,-0.913682,-2.82981
0.278854,-0.928461,-2.86818
0.353082,-0.943209,-2.90647
0.428643,-0.960178,-2.95061
0.505614,-0.978952,-2.99952
0.592883,-1.02316,-3.11557
0.678948,-1.05795,-3.20674
0.833786,-1.24666,-3.70421
0.922699,-1.26854,-3.76121
-0.699165,-1.17941,-3.33419
-0.592714,-1.02875,-2.94849
-0.509995,-0.974795,-2.81019
-0.434033,-0.947978,-2.74132
-0.361339,-0.937848,-2.71514
-0.289923,-0.935818,-2.70968
-0.218964,-0.927375,-2.68782
-0.149006,-0.915323,-2.65674
-0.0794406,-0.914099,-2.65334
-0.00903845,-0.925182,-2.68142
0.0617547,-0.936021,-2.70888
0.134564,-0.956592,-2.76121
0.208218,-0.976186,-2.81105
0.282396,-0.993858,-2.85596
0.358581,-1.01598,-2.91226
0.43645,-1.04002,-2.97344
0.515804,-1.06482,-3.03656
0.618495,-1.15098,-3.25653
0.739978,-1.27193,-3.56541
0.826183,-1.29215,-3.61679
-0.60133,-1.16623,-3.10668
-0.508019,-1.04669,-2.81087
-0.432107,-1.02171,-2.74915
-0.358669,-1.00468,-2.70711
-0.286914,-0.99577,-2.68518
-0.216052,-0.986062,-2.66127
-0.145991,-0.980437,-2.64746
-0.076387,-0.977972,-2.64148
-0.00641883,-0.983902,-2.65628
0.0644891,-0.996419,-2.68739
0.136498,-1.01264,-2.72766
0.211166,-1.03878,-2.79252
0.28869,-1.07157,-2.87384
0.365668,-1.09538,-2.93291
0.448501,-1.13535,-3.032
0.553137,-1.23665,-3.28299
0.63195,-1.24727,-3.3094
0.8149,-1.32741,-3.50813
-0.433585,-1.13302,-2.84545
-0.358314,-1.10998,-2.79069
-0.285095,-1.09632,-2.75844
-0.213031,-1.08962,-2.74287
-0.141993,-1.0742,-2.70636
-0.0718709,-1.06418,-2.6828
-0.00165466,-1.06467,-2.68446
0.0695703,-1.07509,-2.70995
0.14366,-1.1013,-2.77331
0.223227,-1.14934,-2.8891
0.304843,-1.1946,-2.99823
-0.209597,-1.27464,-3.00784
-0.134843,-1.25858,-2.97136
-0.0613688,-1.24268,-2.93524
0.0132104,-1.25166,-2.95701
0.0892204,-1.27007,-3.00072
-0.125138,-1.51392,-3.37974
-0.0458133,-1.50106,-3.352
0.0327331,-1.49142,-3.33153
0.111038,-1.48697,-3.32279
-0.0426429,-1.56922,-3.32651
0.0360267,-1.56136,-3.31092
