194.64,325.697,0.648799
195.573,316.703,0.630882
191.292,324.536,0.659626
188.861,309.733,0.629538
183.218,290.784,0.591025
179.841,276.505,0.562003
175.666,261.902,0.532321
241.535,465.679,0.96614
239.44,443.885,0.920923
225.274,402.157,0.83435
192.328,331.079,0.686887
185.25,307.898,0.638793
176.299,283.254,0.587663
171.771,267.075,0.554098
169.781,255.733,0.530566
167.961,245.325,0.508973
166.283,235.73,0.489067
163.808,225.587,0.468023
757.801,2384.55,5.05201
580.164,1711.48,3.62602
608.662,1689.93,3.58037
244.313,549.122,1.16339
226.719,486.416,1.03054
225.477,462.718,0.980334
223.377,439.308,0.930737
223.138,421.285,0.892554
210.164,381.529,0.808325
189.457,331.198,0.701691
182.135,307.027,0.650481
176.768,287.706,0.609546
172.003,270.618,0.573342
168.735,256.912,0.544306
166.78,246.001,0.521189
164.974,235.963,0.499922
163.313,226.718,0.480334
161.957,218.411,0.462735
163.635,214.544,0.454542
1427.57,4710.98,10.1969
599.169,1845.44,3.99446
463.534,1338.45,2.89709
389.31,1058.01,2.29006
347.439,891.76,1.93022
286.464,696.559,1.5077
262.354,606.038,1.31177
211.08,464.376,1.00514
209.624,440.211,0.952839
209.924,421.673,0.912712
209.651,403.577,0.873544
208.413,385.148,0.833653
192.44,341.951,0.740154
185.776,317.884,0.688061
179.931,296.887,0.642612
174.771,278.428,0.602659
170.196,262.101,0.567319
167.15,249.107,0.539193
164.986,238.199,0.515582
163.266,228.572,0.494745
161.678,219.692,0.475524
160.47,211.82,0.458486
161.393,207.121,0.448315
-1956.3,-7368.74,-16.3025
1519.46,5283.04,11.6881
663.376,2141.76,4.7384
490.021,1476.6,3.2668
400.766,1132.17,2.50479
345.295,918.077,2.03114
307.305,771.678,1.70725
277.488,660.13,1.46046
221.527,500.652,1.10764
204.824,440.859,0.975352
198.527,407.883,0.902395
193.96,381.174,0.843306
196.209,369.527,0.817539
196.864,355.929,0.787455
189.099,328.741,0.727302
183.402,307.028,0.679265
177.862,287.12,0.63522
172.853,269.412,0.596045
168.63,254.07,0.562101
165.673,241.562,0.53443
163.196,230.515,0.509988
161.565,221.294,0.48959
160.121,212.867,0.470945
159.075,205.435,0.454501
158.098,198.501,0.439161
161.106,196.81,0.435421
-946.401,-3802.81,-8.60364
23061.4,84942.9,192.178
1067.97,3631.1,8.21515
596.98,1884.75,4.26414
456.049,1343.82,3.04032
378.804,1046.45,2.36753
329.657,857.108,1.93916
295.131,724.712,1.63962
241.087,560.845,1.26888
214.543,474.14,1.07272
198.928,418.696,0.947276
193.221,388.199,0.878279
188.297,361.859,0.818685
183.987,338.842,0.766611
184.067,325.43,0.736267
186.417,316.909,0.71699
180.435,295.379,0.668279
175.698,277.352,0.627492
170.918,260.503,0.589373
167.096,246.189,0.556988
164.248,234.187,0.529834
161.661,223.294,0.50519
159.904,214.174,0.484557
158.684,206.29,0.466719
157.709,199.164,0.450597
156.793,192.507,0.435536
158.211,188.998,0.427597
-1162.15,-4564.06,-10.565
7339.05,26420.6,61.1587
971.703,3229.04,7.47464
555.638,1714.54,3.96884
429.42,1236.73,2.8628
360.157,972.424,2.25098
315.406,801.502,1.85533
283.02,679.247,1.57233
226.799,515.67,1.19368
207.537,448.28,1.03769
193.324,397.695,0.920591
190.534,374.139,0.866063
188.942,354.883,0.821487
187.121,336.817,0.77967
184.163,318.234,0.736654
184.813,307.074,0.71082
179.68,287.487,0.66548
173.952,268.383,0.621258
168.908,251.615,0.582442
165.586,238.444,0.551955
162.842,226.928,0.525295
160.341,216.46,0.501065
158.29,207.216,0.479667
157.291,199.852,0.46262
156.363,192.997,0.446751
155.736,186.883,0.4326
156.372,182.575,0.422626
158.268,179.925,0.416494
155.941,172.734,0.399847
-1479.68,-5676.6,-13.4517
3129.4,11005.1,26.0784
890.488,2890.66,6.84991
536.589,1617.43,3.83278
409.165,1151.12,2.72776
346.12,912.892,2.16325
305.119,757.413,1.79482
277.889,651.495,1.54383
233.549,518.725,1.22921
212.948,449.319,1.06474
198.103,398.092,0.943346
195.295,374.611,0.887703
193.185,354.452,0.839935
187.848,330.299,0.7827
184.572,311.557,0.738287
184.676,299.744,0.710294
180.706,282.437,0.669282
174.964,263.695,0.62487
169.895,247.226,0.585844
167.049,234.982,0.55683
163.947,223.179,0.52886
161.138,212.501,0.503557
158.966,203.284,0.481716
157.368,195.322,0.462847
156.763,189.012,0.447896
156.185,183.083,0.433847
157.899,180.09,0.426753
157.247,174.627,0.413808
154.973,167.688,0.397366
152.861,161.268,0.382151
-527.401,-2172.89,-5.27401
-1953.63,-7317.22,-17.7603
2011.65,6906.68,16.7638
776.132,2459.74,5.97024
507.877,1494.61,3.62769
389.073,1068.65,2.59382
336.51,866.515,2.10319
301.921,731.715,1.77601
276.624,633.162,1.5368
247.916,537.587,1.30482
218.419,449.944,1.0921
203.961,400.152,0.971241
199.964,374.478,0.908928
197.53,353.836,0.858825
188.392,323.407,0.784969
185.651,305.953,0.742604
184.5,292.361,0.709615
181.171,276.454,0.671004
175.768,258.63,0.627743
171.811,244.09,0.592453
169.1,232.231,0.563667
165.899,220.485,0.535158
162.836,209.652,0.508864
160.739,200.681,0.487089
158.998,192.668,0.46764
157.162,185.002,0.449034
156.493,179.098,0.434703
157.744,175.65,0.426335
156.272,169.432,0.411242
154.043,162.733,0.394982
151.981,156.541,0.379953
150.054,150.786,0.365985
-586.284,-2356.86,-5.86284
-2466.2,-9012.84,-22.42
1447.62,4849.54,12.0635
668.676,2067.75,5.14366
486.877,1398.03,3.47769
395.721,1060.53,2.63814
336.152,844.581,2.10095
297.725,704.033,1.75133
273.472,610.753,1.51929
252.512,534.261,1.32901
223.854,449.947,1.11927
209.758,401.537,0.998847
204.647,373.947,0.930215
200.325,350.134,0.870979
189.646,317.658,0.790193
186.782,300.346,0.747129
184.322,284.991,0.708932
181.019,269.517,0.670441
176.631,253.591,0.630824
173.617,240.67,0.598681
171.065,229.227,0.570216
167.775,217.567,0.541211
164.258,206.349,0.513305
162.397,197.829,0.492111
161.133,190.516,0.473921
158.927,182.539,0.454077
156.887,175.19,0.435796
156.949,170.523,0.424187
155.315,164.307,0.408725
153.146,157.858,0.392681
151.134,151.89,0.377835
149.107,146.197,0.363675
147.95,141.609,0.352262
-434.956,-1705.03,-4.34956
-2540.19,-9052.31,-23.0926
1474.59,4816.98,12.2882
739.753,2230.64,5.69041
518.906,1452.94,3.70647
410.425,1072.58,2.73617
349.529,856.345,2.18455
308.572,711.531,1.81513
274.605,598.028,1.52558
252.396,520.733,1.3284
229.694,450.2,1.14847
215.466,402.204,1.02603
209.742,373.722,0.953372
199.309,339.692,0.866561
190.042,310.403,0.791843
183.79,288.183,0.735161
179.203,270.183,0.689242
175.743,255.152,0.650899
173.409,242.773,0.619318
175.584,237.342,0.605464
172.956,225.996,0.576521
169.192,213.946,0.54578
165.622,202.887,0.51757
163.891,194.682,0.496638
163.235,188.2,0.480102
160.914,180.224,0.459754
157.878,171.911,0.438549
156.155,165.44,0.422041
154.371,159.246,0.406239
152.259,153.04,0.390407
150.11,147.108,0.375276
148.513,141.993,0.362228
147.355,137.531,0.350845
-292.516,-1241.57,-3.25018
-482.425,-1842.86,-4.82425
-1833.71,-6367.99,-16.6701
2298.41,7316.59,19.1534
879.583,2584.62,6.76602
575.253,1569.62,4.10895
441.906,1125.39,2.94604
367.344,877.034,2.2959
319.694,718.372,1.88056
270.453,573.961,1.50251
240.606,483.745,1.26635
215.249,411.126,1.07625
198.793,361.614,0.946634
191.884,333.181,0.872201
181.842,302.015,0.790616
176.158,280.385,0.733993
173.27,264.756,0.693078
169.85,249.548,0.653268
166.153,235.076,0.615382
163.231,222.694,0.582968
161.064,212.16,0.555393
162.866,207.383,0.542887
165.109,203.457,0.532611
166.631,198.916,0.520722
165.185,191.215,0.500562
164.07,184.338,0.48256
161.275,176.02,0.460786
158.039,167.697,0.438996
155.231,160.266,0.419544
153.419,154.226,0.403733
151.175,148.074,0.387628
149.084,142.375,0.372709
147.853,137.756,0.360618
146.744,133.467,0.34939
157.92,140.292,0.367257
-208.91,-971.434,-2.61138
-317.633,-1312.88,-3.52926
-545.095,-2027.75,-5.45095
-1318.36,-4458.47,-11.9851
4406.18,13659.2,36.7182
1063.45,3043.11,8.18041
644.528,1712.6,4.60377
480.318,1191.19,3.20212
392.614,912.828,2.45384
271.049,593.119,1.59441
237.447,490.724,1.31915
217.855,426.536,1.1466
198.837,369.837,0.994186
189.623,335.904,0.902969
179.654,303.779,0.816611
173.779,281.069,0.755561
169.923,263.381,0.708015
168.012,250.002,0.672048
164.795,235.784,0.633827
159.885,220.287,0.592168
156.912,208.468,0.560398
155.067,198.913,0.534713
156.068,193.524,0.520225
157.676,189.211,0.508631
159.125,184.983,0.497265
164.38,185.301,0.49812
162.998,178.339,0.479406
160.011,170.069,0.457176
157.23,162.471,0.436751
154.64,155.476,0.417946
152.287,149.08,0.400754
150.1,143.172,0.384871
148.431,138.041,0.371078
147.254,133.606,0.359156
146.154,129.451,0.347986
145.122,125.547,0.337492
162.106,137.053,0.368423
-212.94,-963.555,-2.66175
-323.712,-1302.04,-3.5968
-566.127,-2049.38,-5.66127
-1467.86,-4830.59,-13.3442
6316.16,19053.8,52.6347
1406.11,3915.48,10.8162
650.276,1681.43,4.64483
484.338,1168.87,3.22892
270.18,611.282,1.68862
237.565,505.873,1.39744
222.234,446.937,1.23463
206.786,393.981,1.08835
188.17,340.587,0.940848
178.795,308.208,0.851403
172.235,283.405,0.782887
167.618,263.816,0.728773
164.264,247.766,0.684435
162.549,235.371,0.650196
158.617,220.844,0.610066
154.069,206.567,0.570627
152.658,197.365,0.545206
151.679,189.337,0.52303
153.154,184.806,0.510514
155.717,181.837,0.502311
157.894,178.617,0.493418
160.666,176.246,0.486868
161.865,172.338,0.476073
158.748,164.191,0.453567
155.996,156.863,0.433323
153.46,150.142,0.414757
151.164,144.003,0.3978
149.044,138.344,0.382165
147.783,133.744,0.369458
146.626,129.46,0.357624
144.752,124.762,0.344647
144.929,122.01,0.337045
159.242,131.012,0.361913
160.263,128.923,0.35614
-219.328,-965.043,-2.7416
-333.242,-1303.35,-3.70269
-571.096,-2010.26,-5.71096
-1433.26,-4586.43,-13.0296
6144.09,18022.7,51.2008
1157.31,3133.64,8.90238
725.851,1825,5.18465
354.295,831.413,2.36197
240.322,528.708,1.50201
217.579,450.517,1.27988
205.084,401.053,1.13936
193.251,358.023,1.01711
178.229,313.682,0.891143
171.685,287.776,0.817546
166.197,265.914,0.755439
161.321,246.891,0.701396
158.084,231.857,0.658684
156.154,219.864,0.624614
152.189,206.04,0.585341
149.272,194.607,0.552861
149.412,187.832,0.533615
148.773,180.579,0.513009
150.396,176.464,0.501319
153.273,174.039,0.494429
156.058,171.664,0.487682
158.458,169.022,0.480177
161.099,166.784,0.473819
158.995,159.904,0.454272
155.746,152.285,0.432627
152.751,145.32,0.41284
150.083,139.024,0.394955
148.246,133.801,0.380118
145.716,128.23,0.364291
143.52,123.218,0.35005
141.43,118.532,0.336738
145.622,119.207,0.338656
152.369,121.895,0.346292
158.071,123.647,0.351269
-224.88,-961.361,-2.811
-344.961,-1310.85,-3.8329
-603.022,-2062.33,-6.03022
-1629.1,-5065.01,-14.81
5896.51,16805,49.1376
1159.06,3049.21,8.91582
680.292,1661.86,4.85923
312.524,712.554,2.08349
224.651,480.191,1.40407
201.012,404.389,1.18242
189.711,360.451,1.05395
181.765,327.178,0.95666
172.366,294.746,0.86183
165.417,269.393,0.787698
160.65,249.737,0.730226
156.407,232.57,0.680031
152.104,216.748,0.633765
149.426,204.415,0.597705
146.482,192.681,0.563393
145.536,184.345,0.53902
145.69,177.95,0.52032
145.807,171.952,0.502783
148.438,169.219,0.494793
150.968,166.552,0.486993
153.254,163.79,0.478917
155.536,161.192,0.471322
159.322,160.259,0.468593
159.369,155.726,0.455339
156.139,148.332,0.43372
153.173,141.581,0.41398
149.342,134.407,0.393004
145.92,127.961,0.374154
143.689,122.854,0.359223
141.565,118.086,0.345279
139.556,113.638,0.332276
140.967,112.118,0.32783
144.793,112.544,0.329075
155.687,118.322,0.345971
-231.847,-962.166,-2.89809
-367.577,-1355.95,-4.08419
-693.12,-2301.16,-6.93121
-2453.88,-7406.27,-22.308
3184.55,8810.6,26.5379
1081.78,2762.71,8.32141
690.552,1637.6,4.93252
280.189,620.152,1.86793
214.344,444.763,1.33965
188.045,367.241,1.10615
178.649,329.508,0.992495
170.699,298.274,0.898415
164.908,273.747,0.82454
159.893,252.783,0.761394
155.307,234.372,0.70594
152.093,219.543,0.661274
148.693,205.692,0.619555
144.615,192.049,0.578462
142.442,181.888,0.547855
141.95,174.546,0.52574
141.482,167.757,0.505293
141.344,161.815,0.487394
144.25,159.637,0.480834
147.208,157.655,0.474865
149.56,155.169,0.467376
153.425,154.355,0.464923
157.637,153.928,0.463639
159.449,151.249,0.45557
155.178,143.108,0.43105
151.251,135.717,0.408785
147.62,128.973,0.388474
144.246,122.794,0.369863
141.692,117.605,0.354231
140.499,113.77,0.34268
139.928,110.609,0.333161
139.394,107.625,0.324173
142.733,107.699,0.324393
143.94,106.196,0.319867
-282.204,-1135.87,-3.52755
-455.232,-1628.72,-5.05813
-893.541,-2877.2,-8.93542
-3731.21,-10922.3,-33.9201
2412.86,6474.5,20.1071
1008.5,2497.98,7.7577
672.744,1547.31,4.80531
235.839,506.267,1.57226
198.871,400.227,1.24294
179.137,339.307,1.05375
170.651,305.276,0.948062
166.132,281.549,0.874377
159.047,256.066,0.795235
154.446,236.818,0.735458
150.312,220.002,0.683236
146.384,204.937,0.63645
143.037,191.908,0.595988
141.223,181.895,0.564893
139.203,172.398,0.535398
138.434,165.096,0.51272
137.957,158.651,0.492705
137.303,152.454,0.47346
139.556,149.79,0.465187
142.368,147.879,0.459253
146.029,146.942,0.456342
150.799,147.143,0.456967
155.115,146.903,0.456221
158.97,146.253,0.454201
154.582,138.265,0.429394
150.602,131.064,0.407032
146.925,124.5,0.386645
143.588,118.552,0.368174
141.155,113.63,0.352887
140.564,110.394,0.342839
140.005,107.337,0.333344
139.483,104.45,0.324378
138.716,101.515,0.315263
141.798,101.464,0.315107
143.35,100.345,0.31163
-328.47,-1281.03,-4.10587
-569.564,-1974.49,-6.32849
-1378.22,-4300.04,-13.7822
-12308.1,-34910.3,-111.892
2071.78,5386.64,17.2649
962.869,2310.89,7.40669
660.401,1471.75,4.71715
203.875,424.059,1.35916
182.705,356.275,1.14191
170.851,313.562,1.00501
164.585,285.281,0.914364
156.418,256.855,0.823252
153.108,238.848,0.765538
150.159,223.093,0.715043
146.782,208.163,0.667189
142.884,193.825,0.621234
140.062,182.08,0.58359
139.155,173.665,0.55662
137.294,164.753,0.528056
135.348,156.402,0.501287
134.996,150.424,0.482129
134.583,144.793,0.46408
135.815,141.247,0.452716
137.991,138.881,0.445132
140.82,137.299,0.440062
146.835,138.826,0.444954
152.993,140.394,0.44998
156.816,139.79,0.448045
154.275,133.705,0.428542
150.424,126.844,0.406553
146.907,120.619,0.386598
143.648,114.918,0.368328
140.581,109.653,0.351452
139.986,106.526,0.341429
139.429,103.576,0.331973
138.529,100.514,0.32216
137.681,97.6286,0.312912
136.878,94.9024,0.304174
142.482,96.6402,0.309744
-367.734,-1388.2,-4.59667
-725.918,-2435.86,-8.06575
-2264.17,-6837.79,-22.6417
5688.48,15617.5,51.7135
1440.13,3624.32,12.0011
880.007,2044.32,6.76929
623.143,1344.21,4.45102
189.658,381.844,1.26438
174.28,328.954,1.08925
166.415,295.631,0.97891
160.093,268.601,0.889407
152.679,242.679,0.803573
150.502,227.258,0.752511
147.454,212.053,0.702162
144.617,198.52,0.65735
141.331,185.574,0.614483
138.194,173.894,0.575807
137.12,165.641,0.548481
135.24,157.086,0.520152
132.795,148.534,0.491835
132.623,143.044,0.473654
132.747,138.24,0.457748
133.696,134.588,0.445654
135.153,131.665,0.435978
137.164,129.448,0.428636
143.34,131.178,0.434363
149.321,132.632,0.439179
153.729,132.647,0.439227
154.636,129.723,0.429545
150.697,123.001,0.407289
147.061,116.875,0.387004
143.702,111.277,0.368468
140.7,106.228,0.351749
139.336,102.633,0.339844
138.402,99.5175,0.329528
137.525,96.5872,0.319825
136.691,93.8198,0.310662
135.905,91.2076,0.302012
142.407,93.4932,0.30958
145.168,93.2784,0.308869
-198.528,-828.144,-2.83611
-350.762,-1280.28,-4.38453
-771.402,-2502.77,-8.57113
-3047.08,-8897.46,-30.4708
3095.75,8217.81,28.1432
1152.26,2803.82,9.60214
751.485,1687.95,5.78066
221.487,461.958,1.58205
180.451,351.279,1.20301
165.375,301.81,1.03359
161.284,277.029,0.948729
156.149,253.309,0.867496
150.727,231.644,0.7933
148.31,216.533,0.74155
145.157,201.837,0.691222
142.112,188.622,0.645964
139.472,177.069,0.6064
135.772,165.189,0.565715
133.276,155.667,0.533105
132.199,148.47,0.508459
132.768,143.586,0.491734
135.675,141.49,0.484555
134.991,135.922,0.465486
135.467,131.855,0.451558
134.923,127.089,0.435235
135.947,124.052,0.424835
139.637,123.557,0.423142
145.769,125.19,0.428733
150.216,125.323,0.429188
154.035,124.94,0.427876
151.528,119.584,0.409535
148.093,113.798,0.389718
144.725,108.358,0.37109
141.58,103.353,0.35395
140.383,99.9803,0.342398
139.444,96.9466,0.332009
138.555,94.0887,0.322221
137.779,91.435,0.313134
138.098,89.6104,0.306885
141.863,90.052,0.308397
145.624,90.4729,0.309839
-212.783,-857.212,-3.03976
-356.122,-1255.33,-4.45153
-804.098,-2519.51,-8.93443
-3902.8,-11005.9,-39.028
2565.4,6576.76,23.3218
1072,2519.21,8.93335
716.787,1554.88,5.51375
218.59,440.303,1.56136
192.899,362.649,1.28599
180.294,317.768,1.12684
160.376,266.036,0.94339
152.585,239.049,0.847693
149.793,222.324,0.788384
146.436,206.475,0.732181
141.42,189.907,0.673429
138.941,178.097,0.631551
138.566,169.894,0.602462
137.302,161.329,0.57209
136.467,153.935,0.545868
135.365,146.819,0.520633
134.356,140.327,0.497614
133.432,134.385,0.476542
133.048,129.378,0.458787
133.923,125.888,0.44641
134.652,122.49,0.434363
135.994,119.845,0.424981
138.617,118.455,0.420053
142.674,118.335,0.419629
147.256,118.646,0.420732
153.343,120.119,0.425954
150.889,115.002,0.407809
148.607,110.282,0.39107
145.685,105.341,0.37355
142.947,100.778,0.357367
141.903,97.6018,0.346106
141.023,94.6871,0.33577
140.416,92.0867,0.326549
139.842,89.6261,0.317823
140.367,87.9633,0.311927
141.938,87.0139,0.30856
145.487,87.292,0.309546
-221.651,-861.273,-3.16644
-358.125,-1217.62,-4.47656
-687.715,-2078.43,-7.64127
-3666.8,-9973.71,-36.668
2274.15,5623.36,20.6741
986.983,2237.16,8.22486
680.247,1423.29,5.23267
236.491,459.468,1.68922
191.875,347.934,1.27917
175.687,298.668,1.09805
167.845,268.551,0.987321
161.724,244.383,0.898466
155.134,222.086,0.816494
148.084,201.394,0.74042
138.159,178.949,0.657901
134.896,166.781,0.613165
137.588,162.713,0.59821
138.515,156.984,0.577147
138.816,151.032,0.555265
137.522,143.869,0.528931
136.574,137.585,0.505828
135.335,131.468,0.483339
134.411,126.068,0.463486
134.153,121.632,0.447177
133.507,117.142,0.430669
135.989,115.591,0.424966
138.729,114.347,0.420392
141.588,113.271,0.416436
145.371,112.974,0.415345
151.51,114.474,0.420862
150.245,110.451,0.406069
148.266,106.127,0.390174
146.054,101.863,0.374497
144.416,98.203,0.361041
143.291,95.0612,0.34949
142.227,92.1087,0.338635
141.058,89.2274,0.328042
139.919,86.4955,0.317998
139.55,84.3503,0.310112
142.587,84.3125,0.309972
145.305,84.0914,0.309159
-301.133,-986.211,-3.76417
-535.401,-1558.61,-5.9489
-1518.22,-3977.74,-15.1822
3417.94,8140.91,31.0722
1112.9,2429.84,9.2742
708.123,1427.14,5.4471
268.653,502.764,1.91895
195.865,342.11,1.30576
181.983,297.997,1.13739
171.664,264.565,1.00979
165.059,240.252,0.916992
158.774,218.941,0.835652
152.287,199.495,0.761433
129.931,162.105,0.61872
130.303,155.179,0.592287
132.129,150.512,0.574475
138.96,151.698,0.579001
138.327,144.967,0.553307
137.767,138.827,0.529873
136.205,132.17,0.504464
135.664,126.943,0.484514
136.457,123.282,0.47054
135.952,118.731,0.453173
136.508,115.371,0.440347
135.487,110.93,0.423397
137.969,109.539,0.418086
140.948,108.613,0.414552
143.885,107.708,0.411099
150.599,109.602,0.418329
149.99,106.209,0.405379
147.305,101.563,0.387646
146.074,98.1317,0.374548
144.614,94.722,0.361534
143.233,91.5293,0.349348
141.939,88.5428,0.33795
140.729,85.7468,0.327278
139.588,83.1182,0.317245
138.775,80.7981,0.30839
140.24,79.8761,0.30487
141.601,78.935,0.301279
142.857,77.9763,0.297619
-491.993,-1377.58,-5.46659
-1173.18,-2956.43,-11.7319
10383.5,23787.6,94.3951
1186.59,2491.83,9.88822
702.995,1362.73,5.40765
512.803,923.045,3.66288
211.759,355.755,1.41173
189.584,298.596,1.1849
169.979,251.969,0.999879
161.653,226.314,0.898072
152.432,202.173,0.802272
133.695,168.456,0.668477
126.797,152.157,0.603797
126.325,144.7,0.574206
128.515,140.807,0.558759
133.763,140.451,0.557346
135.015,136.095,0.540061
134.628,130.485,0.517799
134.328,125.373,0.49751
133.962,120.566,0.478437
134.026,116.464,0.462157
134.722,113.167,0.449074
136.072,110.613,0.438941
136.379,107.399,0.426186
136.337,104.112,0.413143
138.073,102.336,0.406097
141.914,102.178,0.405469
148.391,103.874,0.412198
150.099,102.23,0.405673
146.895,97.4148,0.386567
144.68,93.4856,0.370975
143.91,90.6635,0.359776
143.067,87.934,0.348945
141.776,85.0659,0.337563
140.567,82.3789,0.326901
139.421,79.8502,0.316866
139.138,77.9173,0.309196
139.964,76.6758,0.304269
140.069,75.1008,0.298019
140.164,73.5863,0.292009
-283.243,-856.809,-3.54053
-523.65,-1408.04,-5.81833
-1311.38,-3173.53,-13.1138
5641.94,12412.3,51.2904
1039.85,2097.03,8.6654
663.064,1234.32,5.10049
267.224,461.915,1.90874
212.126,342.23,1.41417
181.769,274.925,1.13605
166.958,237.67,0.982106
156.665,210.627,0.870359
147.098,187.356,0.7742
125.923,152.367,0.629616
121.832,140.396,0.580151
121.907,134.098,0.554123
124.775,131.285,0.5425
128.346,129.415,0.534774
130.965,126.774,0.52386
131.986,122.848,0.507637
132.243,118.529,0.48979
132.436,114.462,0.472985
132.611,110.662,0.457279
133.175,107.428,0.443917
134.051,104.646,0.432423
134.134,101.439,0.41917
134.351,98.5242,0.407125
135.285,96.2911,0.397897
138.655,95.8699,0.396157
148.946,97.419,0.402558
146.784,93.4781,0.386273
143.797,89.2282,0.368711
142.485,86.2034,0.356212
141.849,83.7255,0.345973
141.25,81.3867,0.336309
140.522,79.0843,0.326794
139.352,76.6434,0.316708
139.503,75.0216,0.310007
140.561,73.9474,0.305568
140.845,72.52,0.29967
140.943,71.0589,0.293632
-154.643,-512.532,-2.20919
-263.402,-763.865,-3.29252
-528.027,-1361.14,-5.86697
-1501.61,-3483.73,-15.0161
2925.96,6171.12,26.5997
847.006,1637.54,7.05838
588.479,1050.21,4.52677
232.345,385.029,1.65961
199.534,308.613,1.33023
178.607,258.98,1.11629
163.243,222.778,0.960251
150.803,194.368,0.837794
140.538,171.604,0.739673
117.972,136.848,0.589862
116.689,128.914,0.555663
117.884,124.314,0.535837
121.299,122.354,0.527388
124.666,120.51,0.519441
127.403,118.23,0.509613
128.619,114.768,0.494688
129.704,111.45,0.480387
130.586,108.2,0.466379
131.098,104.878,0.452061
131.592,101.764,0.438639
131.7,98.5628,0.42484
131.903,95.6299,0.412198
131.968,92.7773,0.399902
132.963,90.7276,0.391067
135.977,90.1335,0.388507
147.652,92.5817,0.399059
147.188,89.8622,0.387337
144.024,85.676,0.369293
143.915,83.4707,0.359787
142.81,80.8094,0.348316
141.686,78.2645,0.337347
140.623,75.871,0.32703
139.587,73.6005,0.317244
139.672,72.0088,0.310383
140.768,70.9962,0.306018
141.471,69.8324,0.301002
-232.257,-644.513,-2.90321
-529.492,-1306.08,-5.88324
-1467.84,-3258.6,-14.6784
3027.77,6110.59,27.5252
849.881,1572.28,7.08234
573.364,979.129,4.41049
210.863,334.368,1.50616
187.272,277.163,1.24848
172.289,239.051,1.07681
157.889,206.185,0.92876
147.098,181.421,0.817212
130.421,152.387,0.686428
113.948,126.482,0.569739
113.082,119.543,0.538483
114.351,115.39,0.519776
117.316,113.235,0.51007
122.038,112.886,0.508494
124.483,110.541,0.497931
125.873,107.476,0.484127
127.467,104.806,0.4721
128.67,102.017,0.459534
128.91,98.6827,0.444516
129.184,95.5958,0.430612
129.166,92.4999,0.416666
129.495,89.8369,0.404671
129.721,87.2666,0.393093
130.852,85.4389,0.38486
134.396,85.2453,0.383988
146.92,88.1522,0.397082
146.097,85.3514,0.384466
144.762,82.4027,0.371184
144.124,79.9889,0.36031
144.079,78.0136,0.351413
142.841,75.5017,0.340098
141.517,73.0623,0.329109
140.268,70.7715,0.318791
138.921,68.5344,0.308713
139.954,67.5428,0.304247
141.542,66.8559,0.301153
-506.486,-1193.06,-5.62762
-1026.03,-2175.19,-10.2603
-39981.3,-77054.8,-363.466
1155.16,2040.78,9.62632
596.706,973.089,4.59004
198.746,300.959,1.41962
174.814,247.071,1.16543
163.067,216.064,1.01917
153.03,190.838,0.900177
141.867,167.087,0.788148
115.31,128.661,0.606893
109.482,116.051,0.547411
108.907,109.944,0.518606
110.852,106.821,0.503871
114.1,105.17,0.496085
118.423,104.607,0.493427
123.197,104.471,0.492789
122.652,100.008,0.471738
124.591,97.8266,0.461446
125.851,95.2875,0.449469
125.903,92.0395,0.434148
126.331,89.2736,0.421102
126.165,86.2807,0.406984
127.628,84.5534,0.398837
127.739,82.0626,0.387088
130.295,81.2425,0.38322
134.578,81.5159,0.384509
148.131,84.875,0.400354
147.194,82.1188,0.387353
146.672,79.7292,0.376081
146.025,77.3932,0.365062
145.195,75.0763,0.354134
144.469,72.9223,0.343973
142.059,70.0386,0.330371
140.79,67.8353,0.319978
139.5,65.7199,0.31
138.489,63.8254,0.301063
141.172,63.6776,0.300366
-475.683,-1067.64,-5.28537
-920.775,-1859.97,-9.20775
-4031.16,-7402.68,-36.6469
1491.35,2510.44,12.4279
720.291,1119.22,5.5407
188.178,271.514,1.34413
160.872,216.64,1.07248
149.496,188.738,0.934349
141.287,167.882,0.831099
137.124,153.884,0.7618
110.766,117.761,0.582977
105.223,106.275,0.526116
106.18,102.135,0.505618
108.325,99.4616,0.492384
112.473,98.7803,0.489011
115.847,97.5047,0.482696
119.71,96.7258,0.47884
121.89,94.6989,0.468807
121.449,90.862,0.449812
121.448,87.6161,0.433743
121.621,84.715,0.419381
122.377,82.4007,0.407924
123.133,80.2348,0.397202
124.58,78.6413,0.389313
126.141,77.2139,0.382247
129.386,76.8704,0.380547
134.586,77.6756,0.384533
148.934,81.3099,0.402524
146.879,78.078,0.386525
146.275,75.763,0.375064
145.42,73.4369,0.363549
144.529,71.2072,0.352511
144.382,69.441,0.343767
143.206,67.2733,0.333036
141.321,64.8791,0.321184
140.112,62.8946,0.31136
138.837,60.9675,0.30182
-455.869,-972.522,-5.06522
-899.365,-1726.78,-8.99365
-4193.38,-7319.36,-38.1217
2026.57,3242.51,16.8881
757.953,1119.44,5.83041
195.787,268.508,1.39848
150.709,192.908,1.00473
140.625,168.75,0.878908
134.322,151.705,0.790132
130.649,139.359,0.72583
110.04,111.198,0.579156
106.233,101.984,0.531166
106.114,97.0187,0.505306
107.755,94.0411,0.489797
110.618,92.3419,0.480947
114.821,91.8566,0.47842
117.714,90.4046,0.470857
119.971,88.5936,0.461425
119.118,84.7065,0.44118
119.316,81.8167,0.426128
119.416,79.0616,0.411779
120.249,76.9596,0.400831
120.804,74.8205,0.38969
122.661,73.5963,0.383314
125.505,73.0209,0.380317
129.023,72.8599,0.379478
132.658,72.7724,0.379023
147.596,76.5902,0.398907
146.291,73.9153,0.384976
151.191,74.4324,0.387668
150.172,72.0826,0.37543
148.549,69.5643,0.362314
146.02,66.7519,0.347666
143.607,64.1222,0.33397
141.593,61.7859,0.321801
140.466,59.9321,0.312146
140.904,58.8122,0.306314
-818.472,-1489.62,-8.18472
-4828.62,-7989.18,-43.8966
1834.89,2782.91,15.2907
950.227,1330.32,7.30944
674.055,876.272,4.81468
142.858,173.334,0.952387
134.773,153.305,0.842334
129.783,138.944,0.763428
127.854,129.275,0.7103
122.657,117.493,0.645563
119.515,108.759,0.597576
112.128,97.1773,0.533941
115.278,95.3663,0.523991
115.183,91.1447,0.500795
115.994,87.9619,0.483307
115.855,84.3423,0.463419
117.6,82.3203,0.452309
116.924,78.8154,0.433052
117.108,76.1205,0.418244
117.244,73.5807,0.40429
117.931,71.5446,0.393102
119.026,69.8801,0.383956
121.801,69.2741,0.380627
124.897,68.8828,0.378477
128.242,68.6469,0.377181
131.224,68.2366,0.374926
142.332,71.9569,0.395368
147.689,72.6472,0.399161
152.091,72.8435,0.400239
153.303,71.5413,0.393084
151.259,68.823,0.378148
148.204,65.7879,0.361472
145.34,62.9808,0.346048
143.066,60.5536,0.332712
142.322,58.8694,0.323459
141.282,57.1409,0.313961
140.3,55.51,0.305
-831.165,-1429.6,-8.31165
-3789.87,-5925.98,-34.4534
2104.9,3017.02,17.5408
912.66,1207.52,7.02046
658.93,809.542,4.70664
140.791,161.44,0.938603
130.967,140.79,0.818546
126.021,127.504,0.741301
120.18,114.839,0.667668
116.185,105.178,0.6115
113.573,97.6731,0.567867
112.172,91.8745,0.534154
111.146,86.8961,0.50521
111.775,83.588,0.485977
112.039,80.2943,0.466827
113.289,77.9429,0.453156
114.122,75.4958,0.438929
114.881,73.1837,0.425487
115.358,70.8626,0.411992
115.747,68.6501,0.399129
116.858,66.9985,0.389526
118.34,65.6598,0.381743
120.952,65.0119,0.377976
124.106,64.6854,0.376078
127.238,64.3677,0.374231
130.726,64.2424,0.373502
139.358,66.5822,0.387106
150.428,68.0884,0.395863
150.445,66.3503,0.385757
151.383,65.0947,0.378457
148.353,62.2359,0.361837
145.514,59.5913,0.346461
143.331,57.3326,0.333329
142.032,55.5218,0.322801
140.804,53.8183,0.312897
-1573.96,-2318.02,-14.3087
4005.2,5407.01,33.3766
908.01,1131.52,6.98469
646.455,748.041,4.61754
139.221,150.359,0.928143
127.903,129.502,0.799393
122.96,117.174,0.723296
117.135,105.422,0.650752
112.315,95.7629,0.591129
109.594,88.7709,0.547969
107.058,82.5875,0.5098
108.098,79.5993,0.491354
108.775,76.6154,0.472935
109.637,74.0053,0.456823
111.032,71.9488,0.444129
112.671,70.2029,0.433351
113.59,68.1538,0.420703
113.989,65.951,0.407105
114.711,64.0801,0.395556
116.01,62.6456,0.386701
117.804,61.562,0.380013
120.554,61.0306,0.376732
123.704,60.7273,0.37486
126.794,60.4138,0.372925
130.108,60.2216,0.371738
137.862,62.0378,0.382949
146.858,64.3001,0.396914
147.521,62.8905,0.388213
153.56,63.7864,0.393743
151.007,61.158,0.377519
148.517,58.6823,0.362236
145.708,56.2016,0.346923
144.116,54.2947,0.335153
143.091,52.6837,0.325208
142.82,51.4153,0.317378
1241.09,1451.13,9.54688
627.679,681.48,4.48342
144.594,146.522,0.963962
126.478,120.154,0.790485
121.416,108.56,0.714213
114.743,96.8938,0.637459
110.52,88.4161,0.581685
108.05,82.1178,0.540249
106.362,76.9859,0.506486
107.298,74.133,0.487717
107.345,70.9413,0.466719
108.319,68.6019,0.451329
109.099,66.3319,0.436394
111.473,65.169,0.428743
112.47,63.3163,0.416554
112.957,61.3194,0.403417
113.752,59.6216,0.392248
115.24,58.3884,0.384134
116.934,57.3356,0.377208
119.67,56.8432,0.373969
122.694,56.5136,0.3718
126.133,56.3888,0.370979
129.471,56.2273,0.369916
136.664,57.7025,0.379622
157.484,64.6962,0.425633
155.129,62.0515,0.408234
152.796,59.5512,0.391784
150.143,57.0544,0.375358
147.894,54.8288,0.360716
146.584,53.0493,0.349008
146.04,51.6235,0.339628
145.516,50.2693,0.330719
144.996,137.263,0.966643
125.689,111.549,0.785556
119.12,99.4999,0.700704
116.577,91.9666,0.647652
113.689,84.9676,0.598363
110.936,78.7643,0.554678
109.966,74.358,0.523648
109.517,70.6882,0.497804
109.643,67.6929,0.476711
109.828,64.9818,0.457618
110.36,62.6844,0.44144
110.743,60.4827,0.425935
111.476,58.6281,0.412874
111.652,56.6235,0.398757
113.114,55.3867,0.390047
114.385,54.142,0.381282
116.149,53.2037,0.374674
118.634,52.6439,0.370732
121.95,52.4756,0.369547
125.292,52.3277,0.368505
128.889,52.2922,0.368255
134.993,53.2471,0.374979
152.433,55.5012,0.390853
150.084,53.2799,0.37521
149.144,51.6547,0.363766
148.253,50.1236,0.352983
174.282,153.368,1.16188
125.002,103.127,0.781261
119.172,92.5337,0.701013
116.963,85.7731,0.649796
114.611,79.6242,0.603214
107.91,71.2208,0.539551
105.987,66.6206,0.504702
105.796,63.4774,0.48089
106.595,61.1763,0.463457
107.834,59.3086,0.449308
110.582,58.3873,0.442328
111.313,56.5127,0.428126
111.036,54.2844,0.411245
111.279,52.4602,0.397426
112.408,51.1649,0.387613
113.42,49.9046,0.378065
115.415,49.1444,0.372306
117.884,48.6272,0.368388
121.165,48.466,0.367166
124.579,48.366,0.366409
128.668,48.5263,0.367623
134.738,49.4039,0.374272
153.269,51.8756,0.392997
152.561,50.3452,0.381403
151.794,48.8703,0.37023
125.127,95.4095,0.782045
119.779,85.9588,0.70458
114.041,77.2944,0.63356
105.534,67.7642,0.555444
104.211,63.5688,0.521056
103.142,59.9204,0.491151
103.405,57.3428,0.470023
103.456,54.8765,0.449808
104.206,52.9716,0.434193
106.758,52.098,0.427033
108.021,50.6869,0.415466
110.4,49.8846,0.40889
110.819,48.2854,0.395782
111.858,47.0575,0.385717
112.63,45.803,0.375434
115.073,45.2866,0.371202
117.549,44.8155,0.36734
119.947,44.344,0.363476
123.123,44.1796,0.362128
127.883,44.5765,0.365381
153.255,47.9413,0.392961
152.115,46.3951,0.380288
151.029,44.9405,0.368365
123.396,86.377,0.771223
118.326,77.9557,0.696033
112.646,70.0908,0.625811
106.176,62.5878,0.55882
102.083,57.1666,0.510416
100.599,53.6526,0.479041
101.163,51.5013,0.459833
102.656,49.9888,0.446329
103.417,48.2612,0.430904
105.676,47.3426,0.422702
107.614,46.357,0.413902
109.076,45.2463,0.403985
110.386,44.1545,0.394237
111.254,42.9671,0.383635
112.166,41.8754,0.373887
114.237,41.2727,0.368507
116.252,40.688,0.363286
119.365,40.5117,0.361711
122.218,40.26,0.359465
127.864,40.9165,0.365326
144.681,45.0118,0.401891
153.746,43.0489,0.384365
123.153,78.5103,0.769709
114.957,68.9741,0.676216
110.868,62.8254,0.615936
104.003,55.8334,0.547386
101.252,51.6384,0.506259
99.7701,48.4598,0.475096
99.8175,46.279,0.453716
100.966,44.7761,0.438982
102.17,43.4221,0.425707
103.781,42.3425,0.415123
106.361,41.7263,0.409081
108.15,40.8568,0.400557
109.004,39.7085,0.389299
110.171,38.7499,0.379901
111.32,37.8487,0.371066
113.173,37.2376,0.365075
114.853,36.6094,0.358916
117.626,36.357,0.356441
122.583,36.775,0.360539
140.417,39.7847,0.390046
119.89,68.9369,0.749314
110.929,60.0322,0.652524
103.884,53.0965,0.577136
101.411,49.1042,0.533742
99.3998,45.7239,0.496999
98.6358,43.2119,0.469694
98.8131,41.3218,0.44915
99.6019,39.8408,0.433052
100.851,38.6595,0.420212
102.008,37.5388,0.408031
103.579,36.651,0.398381
105.911,36.0882,0.392263
107.028,35.1663,0.382242
108.633,34.463,0.374598
110.161,33.7828,0.367205
111.807,33.1813,0.360666
113.529,32.6395,0.354777
117.277,32.6954,0.355384
120.126,32.5047,0.353312
135.809,35.6984,0.388026
137.125,35.0431,0.380903
128.385,65.7971,0.802404
105.668,50.9693,0.621577
99.8256,45.4761,0.554587
97.6908,42.1613,0.514162
97.4636,39.9601,0.487318
98.0461,38.2847,0.466886
97.9652,36.5143,0.445297
97.5497,34.7786,0.424129
98.1188,33.5239,0.408828
99.7248,32.7097,0.398899
101.228,31.9256,0.389337
103.484,31.4285,0.383274
105.562,30.9147,0.377009
107.391,30.3658,0.370315
109.504,29.9311,0.365013
111.683,29.542,0.360268
113.833,29.1698,0.35573
120.802,30.0174,0.366066
130.532,31.4812,0.383918
131.811,30.8813,0.376602
112.458,47.6292,0.661517
98.7204,39.4881,0.548446
96.9905,36.7543,0.510476
96.187,34.6273,0.480935
96.1933,32.9805,0.458063
96.1172,31.4565,0.436896
96.3909,30.1746,0.419091
96.9056,29.0717,0.403773
98.0761,28.2459,0.392304
99.7176,27.6141,0.383529
101.578,27.0874,0.376213
104.145,26.78,0.371945
107.14,26.6002,0.369448
109.323,26.2375,0.364409
112.671,26.1688,0.363456
120.729,27.1639,0.377277
121.496,26.5082,0.36817
127.334,26.1944,0.363811
99.9314,32.6092,0.525955
98.4989,30.5347,0.492495
98.0371,28.9443,0.466843
98.2101,27.6774,0.44641
97.6256,26.3165,0.424459
97.5124,25.1907,0.406302
98.2305,24.3612,0.392922
99.6757,23.7688,0.383368
102.265,23.4832,0.378761
106.443,23.5696,0.380155
110.291,23.5795,0.380314
107.283,25.3579,0.487652
106.328,24.0394,0.462296
105.458,22.8493,0.43941
106.672,22.1877,0.426686
108.572,21.7144,0.417585
121.496,22.1863,0.528246
120.258,21.0451,0.501074
119.407,20.0604,0.477628
119.059,19.2327,0.457921
117.936,15.7248,0.491401
117.385,15.0253,0.46954
